X,Y,Z,Red,Green,Blue,TreeType,RoadAttribute,Moisture,Roughness,Height,Slope
259312,161061,32,255,0,0,0,0.458824,0.117647,0.294118,32,0.392699
265792,154551,560,255,0,0,0,0,0.0627451,0.266667,560,0.589049
267472,167691,169,0,255,0,1,0.00392157,0.00784314,0.258824,169,0.589049
266932,165771,171,255,0,0,0,0,0.0431373,0.254902,171,0.589049
240292,172461,348,255,0,0,0,0.00392157,0.0588235,0.25098,348,0.528707
243742,176781,296,0,255,0,1,0.443137,0.0117647,0.243137,296,0.524876
245182,173001,705,0,255,0,1,0,0.0980392,0.258824,705,0.524876
257692,164181,353,0,255,0,1,0,0.0627451,0.262745,353,0.589049
258232,170241,1457,0,255,0,1,0.00392157,0.0588235,0.25098,1457,0.460703
262582,155211,145,255,0,0,0,0,0.0941176,0.266667,145,0.589049
263452,154101,282,0,255,0,1,0.00392157,0.054902,0.262745,282,0.392699
258442,162111,29,255,0,0,0,0.00392157,0.0705882,0.282353,29,0.589049
266662,167211,174,0,255,0,1,0.00392157,0.00784314,0.258824,174,0.589049
266692,167451,170,0,255,0,1,0.00392157,0.00784314,0.270588,170,0.589049
245722,173901,754,0,255,0,1,0,0.105882,0.282353,754,0.460703
251842,168681,178,0,255,0,1,0.00392157,0.0745098,0.270588,178,0.392699
270052,172941,52,0,255,0,1,0,0.0901961,0.254902,52,0.392699
250732,168201,167,255,0,0,0,0.00392157,0.188235,0.258824,167,0.392699
244312,168861,389,0,255,0,1,0,0.0666667,0.270588,389,0.589049
245752,173181,745,255,0,0,0,0.423529,0.0509804,0.262745,745,0.589049
266182,152721,111,0,255,0,1,0,0.643137,0.254902,111,0.392699
266092,163671,975,255,0,0,0,0,0.0588235,0.313725,975,0.460703
242752,176601,295,255,0,0,0,0.486275,0.00784314,0.239216,295,0.460703
244762,175971,300,255,0,0,0,0,0.109804,0.266667,300,0.589049
245872,167151,758,255,0,0,0,0,0.0509804,0.254902,758,0.328526
256612,163611,277,0,255,0,1,0.498039,0.0745098,0.266667,277,0.589049
257182,169221,1226,0,255,0,1,0.00392157,0.145098,0.278431,1226,0.59288
259252,161541,31,0,255,0,1,0.027451,0.0666667,0.298039,31,0.328526
267292,170961,165,255,0,0,0,0,0.0313725,0.215686,165,0.392699
258202,160311,32,255,0,0,0,0,0.0784314,0.286275,32,0.589049
268672,158901,1730,0,255,0,1,0.109804,0.121569,0.258824,1730,0.392699
246202,167391,732,0,255,0,1,0,0.0509804,0.254902,732,0.589049
247882,167541,599,0,255,0,1,0.309804,0.0588235,0.254902,599,0.524876
254752,166401,632,255,0,0,0,0.286275,0.0588235,0.247059,632,0.589049
256852,173901,1639,0,255,0,1,0,0.0627451,0.266667,1639,0.524876
267892,160191,1536,255,0,0,0,0,0.0588235,0.282353,1536,0.589049
260812,159741,220,255,0,0,0,0,0.345098,0.247059,220,0.392699
268432,172401,169,0,255,0,1,0.00392157,0.00784314,0.270588,169,0.589049
244912,169221,483,0,255,0,1,0,0.0627451,0.266667,483,0.392699
266722,170301,174,0,255,0,1,0,0.117647,0.227451,174,0.589049
268372,157791,1617,255,0,0,0,0.45098,0.184314,0.266667,1617,0.524876
261292,158901,34,255,0,0,0,0.00392157,0.0588235,0.243137,34,0.589049
257902,161331,37,0,255,0,1,0,0.0627451,0.266667,37,0.328526
260542,161991,37,255,0,0,0,0,0.0705882,0.266667,37,0.524876
243652,176151,300,255,0,0,0,0.00784314,0.0980392,0.258824,300,0.524876
262312,159441,258,0,255,0,1,0,0.0627451,0.266667,258,0.524876
266212,163911,1010,0,255,0,1,0.00392157,0.0627451,0.286275,1010,0.392699
246262,175461,300,0,255,0,1,0,0.0862745,0.25098,300,0.392699
262672,159381,248,255,0,0,0,0,0.0627451,0.266667,248,0.392699
251362,168501,166,255,0,0,0,0.513725,0.0666667,0.266667,166,0.392699
263032,156351,137,255,0,0,0,0.0196078,0.0588235,0.290196,137,0.392699
244702,172101,537,0,255,0,1,0,0.054902,0.309804,537,0.524876
254302,168861,179,0,255,0,1,0,0.0862745,0.282353,179,0.460703
258352,161061,66,0,255,0,1,0,0.0431373,0.286275,66,0.59288
243112,176121,290,255,0,0,0,0.00784314,0.0509804,0.258824,290,0.59288
244822,178911,720,0,255,0,1,0.6,0.0117647,0.262745,720,0.460703
246982,169791,280,255,0,0,0,0.137255,0.0588235,0.258824,280,0.589049
257032,174321,1655,0,255,0,1,0.00392157,0.0588235,0.25098,1655,0.328526
262522,159501,248,255,0,0,0,0,0.0627451,0.266667,248,0.589049
240292,173841,435,255,0,0,0,0,0.113725,0.270588,435,0.524876
242332,171501,435,255,0,0,0,0.360784,0.0745098,0.290196,435,0.524876
243802,170421,507,255,0,0,0,0.00392157,0.0509804,0.270588,507,0.59288
244762,176151,295,0,255,0,1,0,0.109804,0.266667,295,0.460703
245332,174381,737,255,0,0,0,0.00392157,0.054902,0.262745,737,0.59288
257752,163671,279,255,0,0,0,0,0.0588235,0.282353,279,0.59288
259492,161301,25,255,0,0,0,0.494118,0.0941176,0.282353,25,0.524876
261862,161331,232,0,255,0,1,0,0.0705882,0.25098,232,0.460703
263122,156501,134,0,255,0,1,0,0.0666667,0.286275,134,0.19635
266452,170691,170,0,255,0,1,0.00392157,0.188235,0.25098,170,0.589049
266662,167781,168,0,255,0,1,0,0.00784314,0.207843,168,0.392699
268042,171741,166,0,255,0,1,0.00392157,0.00784314,0.270588,166,0.589049
268432,172911,169,255,0,0,0,0,0.14902,0.2,169,0.589049
268672,158871,1729,0,255,0,1,0.333333,0.121569,0.262745,1729,0.524876
268822,158181,1696,255,0,0,0,0.164706,0.105882,0.258824,1696,0.59288
268852,158211,1699,255,0,0,0,0.203922,0.0901961,0.262745,1699,0.589049
269872,172641,56,0,255,0,1,0,0.0745098,0.231373,56,0.589049
245782,167121,761,255,0,0,0,0,0.0509804,0.227451,761,0.328526
245032,174681,705,255,0,0,0,0.00392157,0.054902,0.262745,705,0.392699
240562,170331,253,255,0,0,0,0,0.0823529,0.258824,253,0.460703
241612,173811,131,0,255,0,1,0,0.0941176,0.282353,131,0.392699
242482,179541,699,0,255,0,1,0.00392157,0.00784314,0.270588,699,0.524876
242752,174501,192,255,0,0,0,0,0.0705882,0.266667,192,0.589049
244402,172191,546,255,0,0,0,0.180392,0.054902,0.247059,546,0.524876
244492,172041,546,255,0,0,0,0,0.054902,0.286275,546,0.392699
246382,171471,828,0,255,0,1,0,0.0509804,0.254902,828,0.524876
247672,172341,304,255,0,0,0,0,0.113725,0.176471,304,0.524876
248842,176241,1216,0,255,0,1,0,0.105882,0.258824,1216,0.392699
249292,171771,1715,0,255,0,1,0.113725,0.0980392,0.227451,1715,0.59288
249952,166071,33,0,255,0,1,0.470588,0.054902,0.247059,33,0.589049
251092,168441,171,255,0,0,0,0.52549,0.0666667,0.27451,171,0.589049
252892,168201,264,255,0,0,0,0.533333,0.117647,0.258824,264,0.59288
256582,170841,883,0,255,0,1,0,0.203922,0.247059,883,0.524876
257392,174681,1653,0,255,0,1,0.00392157,0.0588235,0.243137,1653,0.328526
258442,170091,1454,255,0,0,0,0,0.0588235,0.258824,1454,0.528707
258592,159381,58,255,0,0,0,0.00784314,0.0509804,0.262745,58,0.589049
259852,162171,35,255,0,0,0,0,0.0588235,0.321569,35,0.528707
259882,161661,27,0,255,0,1,0.00392157,0.0705882,0.290196,27,0.524876
260092,161811,40,0,255,0,1,0,0.054902,0.278431,40,0.524876
266512,166431,176,0,255,0,1,0,0.0352941,0.235294,176,0.524876
266782,167511,172,0,255,0,1,0.00392157,0.00784314,0.270588,172,0.19635
266812,167841,168,0,255,0,1,0.00392157,0.00784314,0.227451,168,0.524876
266812,167931,170,0,255,0,1,0,0.00784314,0.231373,170,0.524876
267112,157551,1170,255,0,0,0,0,0.129412,0.27451,1170,0.59288
267202,153831,239,255,0,0,0,0.0196078,0.0745098,0.266667,239,0.59288
267532,151311,191,255,0,0,0,0,0.0588235,0.290196,191,0.589049
267592,170961,166,255,0,0,0,0,0.0196078,0.247059,166,0.392699
267802,168321,170,0,255,0,1,0,0.00784314,0.231373,170,0.392699
268222,172011,171,255,0,0,0,0.00392157,0.00784314,0.270588,171,0.392699
268372,159321,1750,0,255,0,1,0,0.0627451,0.266667,1750,0.589049
268912,160401,1945,0,255,0,1,0.490196,0.227451,0.247059,1945,0.59288
268912,171681,169,255,0,0,0,0.00392157,0.00784314,0.262745,169,0.392699
268942,172071,168,255,0,0,0,0.00392157,0.00784314,0.270588,168,0.589049
268972,160491,1954,0,255,0,1,0.133333,0.211765,0.239216,1954,0.524876
269212,171381,165,0,255,0,1,0,0.0196078,0.239216,165,0.392699
244432,176031,296,255,0,0,0,0,0.105882,0.27451,296,0.524876
240532,173811,433,0,255,0,1,0.00392157,0.0509804,0.270588,433,0.264353
240742,172101,292,0,255,0,1,0.45098,0.054902,0.282353,292,0.589049
241432,172251,237,0,255,0,1,0,0.0784314,0.286275,237,0.524876
241942,169491,368,255,0,0,0,0.00392157,0.0705882,0.27451,368,0.589049
244972,180021,792,0,255,0,1,0.00392157,0.00784314,0.270588,792,0.59288
245422,173571,708,0,255,0,1,0,0.0588235,0.27451,708,0.460703
245542,172221,712,255,0,0,0,0.52549,0.145098,0.266667,712,0.524876
245692,173931,755,0,255,0,1,0,0.105882,0.282353,755,0.524876
245842,167091,760,0,255,0,1,0,0.054902,0.247059,760,0.589049
246592,175581,290,255,0,0,0,0,0.101961,0.239216,290,0.589049
247732,168501,218,255,0,0,0,0,0.0745098,0.243137,218,0.524876
249802,167511,183,0,255,0,1,0,0.0862745,0.270588,183,0.264353
252922,168201,264,0,255,0,1,0.294118,0.121569,0.25098,264,0.460703
253912,170991,175,255,0,0,0,0,0.0901961,0.211765,175,0.392699
254752,169941,179,255,0,0,0,0,0.219608,0.270588,179,0.524876
255862,166761,809,255,0,0,0,0,0.0627451,0.235294,809,0.59288
256462,173361,1620,0,255,0,1,0.00392157,0.0470588,0.258824,1620,0.59288
257572,174441,1654,0,255,0,1,0.00392157,0.0588235,0.25098,1654,0.524876
258352,168681,1741,0,255,0,1,0,0.0627451,0.254902,1741,0.460703
258442,170211,1461,255,0,0,0,0,0.0588235,0.258824,1461,0.524876
259762,159861,46,255,0,0,0,0,0.101961,0.290196,46,0.392699
261292,158391,29,0,255,0,1,0.521569,0.0588235,0.286275,29,0.328526
261322,158061,31,0,255,0,1,0.0196078,0.0588235,0.337255,31,0.524876
261532,158871,32,0,255,0,1,0,0.0627451,0.266667,32,0.589049
261832,158691,33,255,0,0,0,0,0.0588235,0.290196,33,0.524876
262162,158841,35,255,0,0,0,0,0.0588235,0.262745,35,0.524876
262552,160131,442,255,0,0,0,0.00392157,0.145098,0.286275,442,0.589049
263152,161211,468,0,255,0,1,0,0.0784314,0.27451,468,0.589049
264682,157341,1204,255,0,0,0,0.00392157,0.0588235,0.25098,1204,0.524876
266452,170181,176,255,0,0,0,0,0.141176,0.176471,176,0.589049
266542,166071,173,0,255,0,1,0,0.0627451,0.196078,173,0.392699
266602,164421,1031,0,255,0,1,0,0.0627451,0.235294,1031,0.328526
266932,170661,172,255,0,0,0,0.00392157,0.113725,0.2,172,0.589049
267022,170991,167,255,0,0,0,0.00392157,0.0627451,0.192157,167,0.589049
267202,160581,1562,255,0,0,0,0,0.0588235,0.282353,1562,0.524876
267292,165801,166,0,255,0,1,0,0.0117647,0.262745,166,0.460703
267292,167151,168,0,255,0,1,0,0.00784314,0.239216,168,0.392699
268192,154791,442,0,255,0,1,0.00392157,0.243137,0.262745,442,0.524876
268192,159531,1740,0,255,0,1,0,0.0588235,0.27451,1740,0.328526
268492,170841,174,255,0,0,0,0,0.0352941,0.258824,174,0.589049
268672,170961,178,0,255,0,1,0,0.0196078,0.235294,178,0.524876
269092,172161,167,0,255,0,1,0.00392157,0.00784314,0.270588,167,0.589049
269662,150381,463,0,255,0,1,0.00392157,0.0588235,0.25098,463,0.589049
269032,158991,1730,0,255,0,1,0.411765,0.0627451,0.25098,1730,0.460703
240142,171861,311,255,0,0,0,0,0.0784314,0.278431,311,0.392699
240652,172341,298,0,255,0,1,0.00392157,0.0509804,0.270588,298,0.392699
241582,179241,761,255,0,0,0,0.00392157,0.00784314,0.270588,761,0.589049
241822,174291,131,255,0,0,0,0,0.0745098,0.243137,131,0.589049
242272,175191,157,255,0,0,0,0.00392157,0.0509804,0.270588,157,0.524876
245152,173271,702,255,0,0,0,0.341176,0.0980392,0.258824,702,0.589049
245512,174351,747,0,255,0,1,0,0.0823529,0.278431,747,0.589049
245692,169971,297,255,0,0,0,0,0.0666667,0.270588,297,0.264353
245752,177981,1048,255,0,0,0,0,0.00392157,0.227451,1048,0.589049
245812,167121,760,0,255,0,1,0.00392157,0.0509804,0.239216,760,0.524876
247642,170391,282,255,0,0,0,0.00392157,0.0941176,0.266667,282,0.589049
247912,175671,1075,0,255,0,1,0,0.0627451,0.254902,1075,0.59288
249052,176601,1253,255,0,0,0,0.00392157,0.0941176,0.266667,1253,0.59288
250072,167331,164,255,0,0,0,0,0.113725,0.270588,164,0.59288
250672,168111,167,255,0,0,0,0,0.192157,0.247059,167,0.19635
251512,165831,34,255,0,0,0,0.352941,0.231373,0.262745,34,0.524876
251542,168831,170,255,0,0,0,0,0.0588235,0.27451,170,0.589049
251572,170571,173,255,0,0,0,0.00392157,0.188235,0.227451,173,0.524876
251662,166401,26,0,255,0,1,0.454902,0.184314,0.266667,26,0.524876
254002,164961,288,0,255,0,1,0,0.0470588,0.243137,288,0.524876
254632,170061,176,0,255,0,1,0,0.156863,0.258824,176,0.589049
255862,172221,1065,0,255,0,1,0,0.203922,0.254902,1065,0.392699
256222,164901,302,0,255,0,1,0,0.0431373,0.254902,302,0.524876
256462,171621,1008,0,255,0,1,0,0.0745098,0.243137,1008,0.524876
256672,171651,1016,255,0,0,0,0,0.0745098,0.243137,1016,0.589049
257032,163641,276,0,255,0,1,0.564706,0.0823529,0.266667,276,0.132177
257182,174621,1661,255,0,0,0,0.00392157,0.0588235,0.243137,1661,0.524876
257332,175251,1661,255,0,0,0,0,0.0705882,0.227451,1661,0.589049
257842,164001,394,0,255,0,1,0,0.0588235,0.290196,394,0.589049
257842,174771,1664,255,0,0,0,0,0.0588235,0.219608,1664,0.524876
258772,169941,1480,0,255,0,1,0,0.0784314,0.27451,1480,0.392699
261322,163071,1045,255,0,0,0,0.00392157,0.0117647,0.25098,1045,0.19635
261382,158931,31,0,255,0,1,0.00392157,0.0588235,0.243137,31,0.589049
262342,158631,34,255,0,0,0,0,0.0588235,0.258824,34,0.589049
262732,162591,438,255,0,0,0,0.00392157,0.0745098,0.254902,438,0.589049
263212,158121,54,255,0,0,0,0,0.0901961,0.2,54,0.589049
264652,157341,1205,0,255,0,1,0.00392157,0.0588235,0.243137,1205,0.59288
266212,152751,113,0,255,0,1,0,0.698039,0.258824,113,0.524876
266212,170451,175,0,255,0,1,0.00392157,0.184314,0.27451,175,0.59288
266242,164061,1006,0,255,0,1,0.00392157,0.0627451,0.286275,1006,0.589049
266392,163911,1004,255,0,0,0,0.00392157,0.0627451,0.286275,1004,0.524876
266662,166041,174,0,255,0,1,0,0.0705882,0.227451,174,0.589049
266692,167211,174,0,255,0,1,0.00392157,0.00784314,0.258824,174,0.589049
266872,159711,1554,0,255,0,1,0,0.0588235,0.282353,1554,0.589049
266932,160101,1573,255,0,0,0,0,0.0588235,0.282353,1573,0.460703
267292,167781,168,0,255,0,1,0.00392157,0.00784314,0.270588,168,0.392699
267412,171861,172,255,0,0,0,0.00392157,0.0156863,0.223529,172,0.524876
267502,153141,268,0,255,0,1,0.105882,0.054902,0.262745,268,0.39653
267982,167541,172,0,255,0,1,0.00392157,0.00784314,0.227451,172,0.589049
268162,154641,431,255,0,0,0,0,0.329412,0.266667,431,0.524876
266962,159831,1568,255,0,0,0,0,0.0588235,0.282353,1568,0.524876
247702,167451,592,0,255,0,1,0,0.109804,0.254902,592,0.524876
240142,178731,790,0,255,0,1,0.00392157,0.00784314,0.270588,790,0.524876
240262,173151,408,255,0,0,0,0,0.0784314,0.247059,408,0.589049
240352,173661,435,255,0,0,0,0,0.0627451,0.254902,435,0.524876
240772,170181,303,0,255,0,1,0.282353,0.454902,0.254902,303,0.19635
241072,170211,305,0,255,0,1,0.45098,0.462745,0.254902,305,0.589049
241672,171261,339,255,0,0,0,0.054902,0.0784314,0.282353,339,0.589049
241762,172641,301,255,0,0,0,0.188235,0.0784314,0.305882,301,0.59288
242332,175071,156,255,0,0,0,0,0.0745098,0.270588,156,0.392699
242362,173931,443,255,0,0,0,0,0.0627451,0.266667,443,0.524876
242482,179841,733,0,255,0,1,0.00392157,0.00784314,0.270588,733,0.524876
242572,171891,441,0,255,0,1,0.517647,0.0666667,0.298039,441,0.589049
242782,169731,388,255,0,0,0,0.00392157,0.0901961,0.282353,388,0.589049
243652,175761,301,0,255,0,1,0,0.101961,0.294118,301,0.39653
244252,176151,294,0,255,0,1,0,0.105882,0.27451,294,0.392699
244522,175791,298,255,0,0,0,0,0.0784314,0.27451,298,0.328526
244612,179391,731,0,255,0,1,0.00392157,0.00784314,0.270588,731,0.59288
244642,176211,294,0,255,0,1,0,0.109804,0.266667,294,0.524876
244792,174291,723,0,255,0,1,0.00392157,0.0745098,0.254902,723,0.589049
244822,176061,299,255,0,0,0,0,0.105882,0.258824,299,0.524876
246532,175671,297,255,0,0,0,0,0.117647,0.25098,297,0.524876
247882,175671,1074,0,255,0,1,0,0.0627451,0.254902,1074,0.460703
249742,167571,178,0,255,0,1,0,0.109804,0.266667,178,0.589049
250432,167961,171,0,255,0,1,0,0.223529,0.25098,171,0.392699
251722,170991,187,0,255,0,1,0.00392157,0.235294,0.14902,187,0.392699
253612,170571,173,0,255,0,1,0.00392157,0.0941176,0.258824,173,0.589049
253792,168711,181,255,0,0,0,0,0.0745098,0.294118,181,0.589049
254512,169101,174,255,0,0,0,0,0.109804,0.266667,174,0.589049
255472,165171,258,255,0,0,0,0.00392157,0.254902,0.254902,258,0.589049
256222,171981,1026,255,0,0,0,0.00392157,0.0980392,0.270588,1026,0.59288
256642,166911,910,255,0,0,0,0,0.0509804,0.254902,910,0.524876
256672,173391,1617,0,255,0,1,0,0.0627451,0.262745,1617,0.589049
256882,172041,1047,0,255,0,1,0,0.0745098,0.243137,1047,0.328526
257062,163641,275,255,0,0,0,0.486275,0.0823529,0.266667,275,0.460703
257692,174981,1658,255,0,0,0,0,0.0588235,0.227451,1658,0.524876
258292,169911,1462,0,255,0,1,0,0.0588235,0.258824,1462,0.524876
258382,162111,28,0,255,0,1,0,0.0705882,0.313725,28,0.264353
259192,162051,30,0,255,0,1,0.00392157,0.0705882,0.282353,30,0.59288
259432,159411,27,255,0,0,0,0,0.160784,0.278431,27,0.524876
261232,163251,1040,0,255,0,1,0,0.00392157,0.254902,1040,0.460703
261292,163281,1037,0,255,0,1,0,0.00392157,0.254902,1037,0.589049
261442,158271,27,255,0,0,0,0,0.0627451,0.266667,27,0.589049
262042,159531,246,255,0,0,0,0,0.0627451,0.266667,246,0.460703
264862,157461,1195,0,255,0,1,0.00392157,0.101961,0.262745,1195,0.460703
265912,170271,177,255,0,0,0,0,0.0980392,0.290196,177,0.59288
265912,170391,172,0,255,0,1,0,0.137255,0.286275,172,0.524876
266272,152751,114,0,255,0,1,0,0.627451,0.25098,114,0.392699
266932,159861,1567,255,0,0,0,0,0.0588235,0.282353,1567,0.524876
266962,170931,172,0,255,0,1,0.00392157,0.0784314,0.137255,172,0.392699
267292,168021,164,0,255,0,1,0.0117647,0.00784314,0.266667,164,0.589049
267472,171471,169,255,0,0,0,0,0.00784314,0.231373,169,0.59288
267562,172341,176,0,255,0,1,0,0.0352941,0.25098,176,0.524876
267682,172311,174,0,255,0,1,0.00392157,0.00784314,0.262745,174,0.59288
267802,171141,172,0,255,0,1,0.00392157,0.00784314,0.262745,172,0.328526
268252,172821,172,255,0,0,0,0,0.152941,0.25098,172,0.589049
268942,161181,1997,0,255,0,1,0,0.176471,0.239216,1997,0.392699
268942,171441,166,0,255,0,1,0,0.00784314,0.239216,166,0.524876
268972,173361,174,255,0,0,0,0.00392157,0.0862745,0.207843,174,0.589049
266512,170481,175,0,255,0,1,0.00392157,0.172549,0.235294,175,0.19635
240382,174591,433,255,0,0,0,0.00392157,0.0705882,0.282353,433,0.392699
241582,176601,166,0,255,0,1,0.243137,0.0117647,0.278431,166,0.59288
241642,173781,131,255,0,0,0,0,0.0862745,0.282353,131,0.328526
241672,170601,332,255,0,0,0,0.133333,0.0823529,0.290196,332,0.59288
241762,172521,292,0,255,0,1,0.180392,0.0666667,0.286275,292,0.589049
241792,170211,345,0,255,0,1,0.360784,0.145098,0.266667,345,0.59288
242482,175641,186,255,0,0,0,0.384314,0.0392157,0.27451,186,0.589049
242752,179571,721,0,255,0,1,0.00392157,0.00784314,0.270588,721,0.524876
242902,176811,293,0,255,0,1,0,0.00784314,0.231373,293,0.589049
243052,179391,757,0,255,0,1,0.00392157,0.00784314,0.270588,757,0.589049
244162,176001,293,255,0,0,0,0,0.105882,0.27451,293,0.589049
244342,176121,295,0,255,0,1,0,0.105882,0.27451,295,0.589049
245572,170091,302,255,0,0,0,0,0.0705882,0.266667,302,0.589049
245782,170271,300,255,0,0,0,0,0.0666667,0.270588,300,0.392699
247702,168471,222,255,0,0,0,0,0.0666667,0.247059,222,0.524876
248572,180051,1417,0,255,0,1,0,0.00392157,0.266667,1417,0.328526
250672,168141,168,255,0,0,0,0.00392157,0.196078,0.25098,168,0.19635
250792,165651,27,0,255,0,1,0.0117647,0.168627,0.258824,27,0.524876
251002,167511,66,0,255,0,1,0.207843,0.0823529,0.266667,66,0.524876
252202,170481,178,0,255,0,1,0,0.164706,0.227451,178,0.589049
254482,164001,90,0,255,0,1,0,0.278431,0.341176,90,0.59288
254812,170151,176,255,0,0,0,0,0.203922,0.254902,176,0.524876
255982,163911,304,0,255,0,1,0.0784314,0.0823529,0.270588,304,0.589049
256102,166581,815,0,255,0,1,0,0.0627451,0.254902,815,0.524876
256342,175371,1716,0,255,0,1,0.00784314,0.0941176,0.247059,1716,0.524876
256552,173211,1618,255,0,0,0,0,0.0627451,0.254902,1618,0.524876
257092,174591,1664,0,255,0,1,0.00392157,0.0588235,0.243137,1664,0.59288
257122,171621,1024,0,255,0,1,0,0.0745098,0.243137,1024,0.328526
257752,163701,281,255,0,0,0,0,0.0588235,0.290196,281,0.524876
258052,161331,38,255,0,0,0,0,0.0627451,0.266667,38,0.589049
258622,170211,1460,255,0,0,0,0,0.0588235,0.262745,1460,0.524876
258652,159411,63,0,255,0,1,0.133333,0.0509804,0.27451,63,0.59288
258712,164691,584,0,255,0,1,0,0.00392157,0.266667,584,0.589049
261292,159741,217,255,0,0,0,0.00392157,0.14902,0.25098,217,0.589049
261532,161151,232,0,255,0,1,0.0156863,0.0941176,0.239216,232,0.524876
261772,158151,24,0,255,0,1,0.482353,0.0588235,0.286275,24,0.528707
262342,155091,144,255,0,0,0,0,0.109804,0.282353,144,0.589049
262582,158391,26,0,255,0,1,0,0.0784314,0.254902,26,0.524876
262702,158751,36,255,0,0,0,0,0.0627451,0.254902,36,0.524876
262912,155931,142,0,255,0,1,0.141176,0.0588235,0.313725,142,0.392699
263272,160791,448,255,0,0,0,0,0.0627451,0.294118,448,0.460703
264862,161031,826,255,0,0,0,0,0.0588235,0.258824,826,0.460703
265132,159591,1757,0,255,0,1,0,0.0627451,0.196078,1757,0.589049
265552,150951,24,0,255,0,1,0,0.129412,0.290196,24,0.589049
266602,170691,169,0,255,0,1,0,0.156863,0.247059,169,0.589049
266722,168171,175,0,255,0,1,0.00392157,0.00392157,0.254902,175,0.589049
266812,168231,170,255,0,0,0,0,0.00784314,0.247059,170,0.589049
266902,158181,1292,0,255,0,1,0.129412,0.14902,0.262745,1292,0.460703
266932,165711,172,255,0,0,0,0,0.0431373,0.25098,172,0.589049
266932,165951,168,255,0,0,0,0,0.0392157,0.270588,168,0.524876
266992,165951,168,255,0,0,0,0,0.027451,0.270588,168,0.524876
267112,168531,174,255,0,0,0,0,0.00784314,0.2,174,0.524876
267172,168501,171,0,255,0,1,0,0.00784314,0.207843,171,0.589049
267322,171171,167,0,255,0,1,0,0.027451,0.207843,167,0.19635
267472,172101,164,255,0,0,0,0,0.0156863,0.235294,164,0.524876
267502,152031,237,0,255,0,1,0.00392157,0.0745098,0.262745,237,0.392699
268462,171261,171,255,0,0,0,0.00392157,0.00784314,0.262745,171,0.392699
268792,160431,1937,0,255,0,1,0.2,0.215686,0.25098,1937,0.59288
268852,171621,172,255,0,0,0,0.317647,0.00784314,0.262745,172,0.19635
268912,158541,1718,0,255,0,1,0.00392157,0.0588235,0.25098,1718,0.524876
268972,171441,165,255,0,0,0,0,0.00784314,0.239216,165,0.460703
269032,158481,1716,0,255,0,1,0.00392157,0.054902,0.258824,1716,0.460703
269212,172041,168,0,255,0,1,0.00392157,0.0117647,0.25098,168,0.392699
261442,159681,214,255,0,0,0,0,0.0666667,0.247059,214,0.392699
240202,173961,434,0,255,0,1,0,0.0745098,0.270588,434,0.392699
240562,173751,433,255,0,0,0,0,0.0470588,0.266667,433,0.524876
240712,179571,765,0,255,0,1,0.00392157,0.00784314,0.270588,765,0.59288
240772,170151,303,0,255,0,1,0.027451,0.498039,0.258824,303,0.524876
242482,175581,183,255,0,0,0,0.00392157,0.0392157,0.270588,183,0.524876
242512,174951,175,0,255,0,1,0,0.0862745,0.270588,175,0.59288
242602,170961,433,255,0,0,0,0.270588,0.12549,0.294118,433,0.589049
242692,175221,183,255,0,0,0,0,0.0862745,0.270588,183,0.392699
242872,176841,293,0,255,0,1,0,0.00784314,0.231373,293,0.589049
243922,179841,786,0,255,0,1,0.00392157,0.00784314,0.270588,786,0.589049
243952,171681,549,0,255,0,1,0.423529,0.054902,0.243137,549,0.589049
244672,172101,537,0,255,0,1,0,0.054902,0.301961,537,0.59288
244912,176301,293,0,255,0,1,0,0.109804,0.254902,293,0.589049
245362,174291,740,255,0,0,0,0,0.0588235,0.290196,740,0.59288
245422,173541,708,0,255,0,1,0.0392157,0.0588235,0.27451,708,0.328526
245482,172131,711,255,0,0,0,0.513725,0.192157,0.278431,711,0.59288
245752,170271,300,255,0,0,0,0,0.0666667,0.270588,300,0.328526
245812,178161,1058,0,255,0,1,0,0.00392157,0.192157,1058,0.524876
246112,171351,790,0,255,0,1,0,0.0980392,0.254902,790,0.392699
246262,175551,300,0,255,0,1,0,0.0862745,0.247059,300,0.524876
246442,172311,809,0,255,0,1,0.00392157,0.054902,0.227451,809,0.524876
246472,170361,305,0,255,0,1,0,0.0862745,0.270588,305,0.524876
246892,169851,277,0,255,0,1,0,0.0627451,0.266667,277,0.524876
247132,169971,282,255,0,0,0,0,0.0627451,0.266667,282,0.528707
247732,168981,244,255,0,0,0,0,0.0588235,0.211765,244,0.59288
248332,175011,1314,0,255,0,1,0.384314,0.0588235,0.278431,1314,0.589049
249172,177651,1198,0,255,0,1,0.00392157,0.00784314,0.270588,1198,0.328526
250102,167511,173,0,255,0,1,0,0.12549,0.27451,173,0.59288
250402,167541,171,255,0,0,0,0,0.0862745,0.270588,171,0.524876
250552,167811,170,0,255,0,1,0,0.180392,0.270588,170,0.589049
250792,168921,167,0,255,0,1,0,0.184314,0.2,167,0.589049
251842,168801,176,0,255,0,1,0.00392157,0.0745098,0.270588,176,0.19635
253372,166851,130,0,255,0,1,0.0235294,0.164706,0.290196,130,0
254512,169431,172,0,255,0,1,0,0.129412,0.266667,172,0.589049
255232,170811,843,0,255,0,1,0,0.180392,0.243137,843,0.59288
255802,165411,256,255,0,0,0,0,0.286275,0.321569,256,0.589049
256252,171741,1012,0,255,0,1,0,0.0901961,0.25098,1012,0.589049
256282,171921,1019,255,0,0,0,0.00392157,0.0941176,0.258824,1019,0.59288
256612,173841,1628,0,255,0,1,0,0.0470588,0.27451,1628,0.589049
256672,174231,1636,0,255,0,1,0,0.0588235,0.258824,1636,0.524876
257002,165051,264,0,255,0,1,0,0.172549,0.262745,264,0.524876
257032,173751,1644,255,0,0,0,0,0.0627451,0.266667,1644,0.589049
257512,174561,1652,0,255,0,1,0.00392157,0.0588235,0.25098,1652,0.59288
258082,163281,287,255,0,0,0,0.00784314,0.0745098,0.247059,287,0.59288
258562,170061,1459,0,255,0,1,0,0.0627451,0.266667,1459,0.589049
259072,161661,29,255,0,0,0,0,0.0627451,0.305882,29,0.19635
259972,161841,35,0,255,0,1,0,0.0588235,0.290196,35,0.524876
261652,158871,27,255,0,0,0,0,0.0588235,0.282353,27,0.524876
261682,158871,28,0,255,0,1,0,0.0588235,0.290196,28,0.59288
261832,158211,26,0,255,0,1,0,0.0588235,0.290196,26,0.328526
262882,160581,444,255,0,0,0,0.231373,0.0431373,0.278431,444,0.59288
263002,160611,441,0,255,0,1,0.00392157,0.0431373,0.286275,441,0.524876
263182,155211,191,255,0,0,0,0,0.0823529,0.266667,191,0.589049
265702,151041,28,255,0,0,0,0,0.0588235,0.290196,28,0.59288
266812,166071,170,0,255,0,1,0.00392157,0.054902,0.262745,170,0.589049
267472,168351,170,0,255,0,1,0.552941,0.00784314,0.270588,170,0.589049
267502,171501,168,255,0,0,0,0,0.00784314,0.239216,168,0.392699
267952,171081,171,0,255,0,1,0.00392157,0.00784314,0.227451,171,0.524876
267952,171951,167,0,255,0,1,0.00392157,0.00784314,0.270588,167,0.392699
268132,172191,174,0,255,0,1,0.00392157,0.00784314,0.270588,174,0.589049
268552,170721,170,0,255,0,1,0,0.0352941,0.25098,170,0.392699
268762,172491,179,0,255,0,1,0.00392157,0.00784314,0.270588,179,0.589049
268822,158991,1737,0,255,0,1,0.333333,0.168627,0.247059,1737,0.59288
268972,158481,1719,0,255,0,1,0.00392157,0.054902,0.258824,1719,0.59288
269062,172941,167,0,255,0,1,0,0.0117647,0.188235,167,0.524876
269212,159141,1722,0,255,0,1,0,0.0705882,0.25098,1722,0.589049
256822,173811,1638,0,255,0,1,0,0.0588235,0.282353,1638,0.328526
240112,174081,433,255,0,0,0,0,0.0666667,0.286275,433,0.589049
240232,172221,348,255,0,0,0,0,0.054902,0.278431,348,0.589049
240442,173481,420,0,255,0,1,0,0.0627451,0.243137,420,0.524876
240682,173721,431,255,0,0,0,0,0.0509804,0.258824,431,0.524876
241012,179901,758,0,255,0,1,0.00392157,0.00784314,0.270588,758,0.39653
242692,172191,440,255,0,0,0,0,0.0666667,0.270588,440,0.328526
243022,170751,467,0,255,0,1,0.34902,0.168627,0.282353,467,0.39653
243862,179961,798,255,0,0,0,0.00392157,0.00784314,0.270588,798,0.392699
244222,175761,302,255,0,0,0,0,0.0823529,0.266667,302,0.460703
244672,171831,538,0,255,0,1,0,0.0627451,0.298039,538,0.524876
245182,173751,708,0,255,0,1,0.00392157,0.0666667,0.258824,708,0.39653
245392,170151,305,0,255,0,1,0,0.0784314,0.262745,305,0.59288
245422,167511,-100,0,255,0,1,0,0.0509804,0.215686,-100,0.589049
245422,178971,767,0,255,0,1,0.00392157,0.00784314,0.219608,767,0.524876
245542,177831,1046,0,255,0,1,0,0.00392157,0.258824,1046,0.524876
245692,176601,307,0,255,0,1,0,0.0588235,0.188235,307,0.460703
245902,166821,765,0,255,0,1,0,0.0509804,0.254902,765,0.589049
246142,174861,299,0,255,0,1,0,0.121569,0.235294,299,0.589049
247432,179421,1410,0,255,0,1,0,0.00392157,0.192157,1410,0.524876
247462,171351,299,0,255,0,1,0.00392157,0.0627451,0.176471,299,0.589049
247732,170481,280,255,0,0,0,0,0.0862745,0.270588,280,0.392699
250432,165951,32,255,0,0,0,0.0509804,0.0627451,0.262745,32,0.589049
250462,167811,169,0,255,0,1,0,0.188235,0.266667,169,0.589049
250672,167721,176,0,255,0,1,0,0.0862745,0.270588,176,0.524876
250672,168201,168,0,255,0,1,0.00392157,0.196078,0.25098,168,0.589049
251242,169101,167,0,255,0,1,0.00392157,0.0588235,0.25098,167,0.460703
251272,165081,30,0,255,0,1,0,0.235294,0.305882,30,0.39653
251332,168891,168,255,0,0,0,0,0.054902,0.294118,168,0.392699
251362,169071,171,255,0,0,0,0,0.0588235,0.258824,171,0.392699
251422,169011,172,0,255,0,1,0,0.0588235,0.27451,172,0.392699
251602,170271,175,255,0,0,0,0,0.101961,0.231373,175,0.392699
251812,168891,175,255,0,0,0,0,0.0745098,0.282353,175,0.392699
252172,170721,170,255,0,0,0,0,0.160784,0.215686,170,0.392699
252232,170691,171,255,0,0,0,0.00392157,0.160784,0.2,171,0.589049
252922,168231,266,0,255,0,1,0.372549,0.121569,0.258824,266,0.589049
253522,169221,458,255,0,0,0,0,0.0627451,0.266667,458,0.524876
254122,166581,572,0,255,0,1,0,0.0627451,0.254902,572,0.524876
254362,170151,172,0,255,0,1,0.00392157,0.0941176,0.258824,172,0.392699
254392,170151,172,255,0,0,0,0,0.0980392,0.258824,172,0.392699
254482,164031,91,255,0,0,0,0,0.270588,0.333333,91,0.59288
254722,170001,177,255,0,0,0,0,0.215686,0.266667,177,0.59288
255022,166881,709,0,255,0,1,0.407843,0.164706,0.262745,709,0.589049
255862,163671,269,255,0,0,0,0,0.0745098,0.27451,269,0.460703
255982,171141,900,0,255,0,1,0.0156863,0.129412,0.247059,900,0.460703
256162,164841,294,0,255,0,1,0,0.0431373,0.254902,294,0.524876
256852,171351,1000,0,255,0,1,0,0.0941176,0.243137,1000,0.392699
256972,171771,1035,0,255,0,1,0,0.0745098,0.243137,1035,0.524876
257872,161361,35,0,255,0,1,0,0.0627451,0.266667,35,0.460703
257902,161271,36,255,0,0,0,0,0.0705882,0.266667,36,0.59288
258232,170361,1455,0,255,0,1,0.00392157,0.0588235,0.25098,1455,0.524876
258802,170511,1456,255,0,0,0,0.00392157,0.0588235,0.235294,1456,0.328526
259102,161661,29,0,255,0,1,0,0.0588235,0.313725,29,0.589049
259342,160671,27,0,255,0,1,0.552941,0.0627451,0.290196,27,0.524876
259432,161781,26,0,255,0,1,0.00392157,0.0705882,0.290196,26,0.328526
260152,163161,445,255,0,0,0,0.572549,0.00392157,0.258824,445,0.392699
260302,161361,38,0,255,0,1,0.00392157,0.0705882,0.290196,38,0.460703
261352,161091,232,255,0,0,0,0.454902,0.0941176,0.239216,232,0.589049
262312,159411,259,0,255,0,1,0,0.0627451,0.266667,259,0.589049
262642,158421,27,0,255,0,1,0,0.0784314,0.254902,27,0.524876
262912,154791,190,0,255,0,1,0.00392157,0.0509804,0.270588,190,0.524876
263032,154971,188,255,0,0,0,0.00392157,0.0509804,0.270588,188,0.589049
266302,151821,114,0,255,0,1,0.12549,0.0588235,0.262745,114,0.460703
266452,170511,171,0,255,0,1,0,0.184314,0.247059,171,0.392699
266512,166371,176,255,0,0,0,0,0.0470588,0.243137,176,0.589049
266722,170211,180,255,0,0,0,0,0.027451,0.172549,180,0.589049
266752,166581,166,255,0,0,0,0.00392157,0.00784314,0.227451,166,0.392699
266812,167511,172,255,0,0,0,0,0.00784314,0.270588,172,0.392699
267112,153921,238,255,0,0,0,0.0156863,0.0509804,0.266667,238,0.589049
267262,165951,165,0,255,0,1,0.203922,0.0117647,0.266667,165,0.589049
267262,169011,165,255,0,0,0,0.45098,0.00784314,0.258824,165,0.589049
267382,171621,173,0,255,0,1,0,0.0156863,0.231373,173,0.59288
267502,171561,170,0,255,0,1,0,0.00784314,0.239216,170,0.524876
267892,168441,171,0,255,0,1,0,0.00392157,0.215686,171,0.524876
268282,171471,174,255,0,0,0,0.00392157,0.00784314,0.270588,174,0.589049
268582,170751,170,0,255,0,1,0,0.0352941,0.258824,170,0.589049
268642,171111,179,255,0,0,0,0,0.00784314,0.239216,179,0.524876
268672,158391,1706,0,255,0,1,0.0196078,0.054902,0.270588,1706,0.59288
269602,150381,463,255,0,0,0,0.00392157,0.0431373,0.25098,463,0.524876
269752,170181,31,255,0,0,0,0,0.0862745,0.231373,31,0.524876
270052,154731,756,0,255,0,1,0,0.184314,0.301961,756,0.528707
240172,173451,432,0,255,0,1,0,0.0745098,0.243137,432,0.392699
240382,176031,34,0,255,0,1,0.00392157,0.00784314,0.262745,34,0.524876
240712,176121,31,0,255,0,1,0.00784314,0.0431373,0.266667,31,0.39653
241222,170331,302,255,0,0,0,0,0.160784,0.247059,302,0.524876
241282,171771,86,0,255,0,1,0,0.0745098,0.282353,86,0.589049
241312,175131,27,255,0,0,0,0.00392157,0.105882,0.243137,27,0.460703
241732,171171,341,0,255,0,1,0.572549,0.0745098,0.290196,341,0.460703
241852,171021,351,255,0,0,0,0.321569,0.0745098,0.282353,351,0.589049
242182,175131,149,0,255,0,1,0.00392157,0.0509804,0.270588,149,0.132177
242302,170181,415,0,255,0,1,0,0.384314,0.27451,415,0.59288
242722,169431,366,0,255,0,1,0,0.0745098,0.282353,366,0.589049
242752,173721,438,0,255,0,1,0.588235,0.0745098,0.247059,438,0.460703
242812,170241,437,0,255,0,1,0.207843,0.054902,0.278431,437,0.59288
242842,170421,443,0,255,0,1,0.419608,0.168627,0.27451,443,0.59288
243352,173781,478,0,255,0,1,0.235294,0.054902,0.239216,478,0.328526
243442,172461,605,255,0,0,0,0,0.0666667,0.235294,605,0.589049
243442,175941,296,0,255,0,1,0.00392157,0.0980392,0.270588,296,0.392699
243472,175851,294,255,0,0,0,0.00392157,0.0980392,0.270588,294,0.392699
243592,174891,442,0,255,0,1,0.0352941,0.0980392,0.298039,442,0.524876
243922,179931,796,0,255,0,1,0.00392157,0.00784314,0.270588,796,0.460703
244522,175701,300,255,0,0,0,0,0.0784314,0.27451,300,0.589049
244522,179541,736,0,255,0,1,0.00392157,0.00784314,0.270588,736,0.19635
244552,172161,541,255,0,0,0,0,0.054902,0.278431,541,0.524876
244612,175971,299,255,0,0,0,0,0.105882,0.27451,299,0.589049
244702,172011,539,255,0,0,0,0,0.054902,0.301961,539,0.524876
244792,179631,773,255,0,0,0,0.00392157,0.00784314,0.270588,773,0.524876
245122,179931,785,255,0,0,0,0.00392157,0.00784314,0.270588,785,0.59288
245272,174381,730,255,0,0,0,0.00392157,0.054902,0.262745,730,0.524876
245362,174321,737,0,255,0,1,0.00392157,0.0509804,0.270588,737,0.460703
245482,168231,239,0,255,0,1,0,0.0627451,0.266667,239,0.589049
245542,176721,301,255,0,0,0,0.00392157,0.0705882,0.188235,301,0.589049
245992,175161,314,0,255,0,1,0.00392157,0.0941176,0.266667,314,0.524876
246202,170331,295,255,0,0,0,0,0.0862745,0.270588,295,0.589049
246322,170271,302,0,255,0,1,0.00392157,0.0705882,0.27451,302,0.524876
246532,175581,290,255,0,0,0,0,0.117647,0.239216,290,0.589049
246622,171861,869,255,0,0,0,0,0.0588235,0.313725,869,0.524876
247192,168891,273,0,255,0,1,0,0.0627451,0.254902,273,0.589049
247312,168831,269,255,0,0,0,0,0.0627451,0.254902,269,0.589049
248842,165021,164,255,0,0,0,0,0.101961,0.270588,164,0.524876
249772,165771,29,255,0,0,0,0.360784,0.054902,0.243137,29,0.524876
250852,168861,167,255,0,0,0,0,0.121569,0.2,167,0.524876
251752,170361,173,255,0,0,0,0,0.129412,0.25098,173,0.392699
252772,167631,221,255,0,0,0,0,0.0588235,0.27451,221,0.524876
256762,171351,993,255,0,0,0,0,0.0941176,0.243137,993,0.589049
257032,172071,1043,0,255,0,1,0,0.0745098,0.243137,1043,0.392699
257182,174801,1660,0,255,0,1,0,0.0588235,0.227451,1660,0.392699
257212,174411,1659,255,0,0,0,0.00392157,0.0588235,0.25098,1659,0.328526
257242,173991,1654,0,255,0,1,0,0.0588235,0.258824,1654,0.460703
257272,174681,1658,255,0,0,0,0.00392157,0.0588235,0.243137,1658,0.524876
257782,163551,271,0,255,0,1,0.027451,0.0705882,0.25098,271,0.328526
259012,161661,30,255,0,0,0,0,0.0509804,0.305882,30,0.589049
259372,162141,37,255,0,0,0,0,0.0745098,0.282353,37,0.524876
259402,159381,28,255,0,0,0,0,0.172549,0.270588,28,0.132177
260362,160491,36,255,0,0,0,0.00392157,0.0941176,0.258824,36,0.524876
260482,159231,156,255,0,0,0,0.00392157,0.0509804,0.247059,156,0.524876
261082,158811,23,0,255,0,1,0.419608,0.0588235,0.243137,23,0.392699
261142,158481,23,0,255,0,1,0.247059,0.0588235,0.380392,23,0.589049
261172,159951,226,255,0,0,0,0,0.247059,0.243137,226,0.524876
261292,158751,21,0,255,0,1,0.0156863,0.0588235,0.239216,21,0.524876
261772,157881,34,255,0,0,0,0.403922,0.0627451,0.380392,34,0.524876
261892,158541,36,0,255,0,1,0,0.0588235,0.290196,36,0.59288
261922,158571,32,0,255,0,1,0,0.0588235,0.290196,32,0.524876
262282,158241,30,255,0,0,0,0,0.0627451,0.266667,30,0.59288
262762,158631,31,255,0,0,0,0,0.0823529,0.258824,31,0.524876
263032,156501,128,255,0,0,0,0,0.0784314,0.286275,128,0.589049
264472,162291,653,255,0,0,0,0.0431373,0.243137,0.247059,653,0.589049
264742,157311,1204,0,255,0,1,0,0.0588235,0.25098,1204,0.59288
264772,158151,1255,0,255,0,1,0.00392157,0.0705882,0.172549,1255,0.589049
266122,170571,175,0,255,0,1,0,0.211765,0.243137,175,0.524876
266152,163971,1011,255,0,0,0,0,0.0627451,0.266667,1011,0.524876
266392,150561,69,0,255,0,1,0,0.0588235,0.290196,69,0.460703
266572,166251,170,0,255,0,1,0,0.0627451,0.262745,170,0.524876
266662,165951,173,255,0,0,0,0,0.0705882,0.219608,173,0.460703
266812,167541,172,0,255,0,1,0.00392157,0.00784314,0.262745,172,0.589049
267172,154221,259,0,255,0,1,0.0431373,0.0470588,0.258824,259,0.59288
267172,154731,287,255,0,0,0,0.00392157,0.0745098,0.262745,287,0.59288
267172,160491,1568,0,255,0,1,0,0.0588235,0.282353,1568,0.460703
267322,171591,178,0,255,0,1,0,0.027451,0.207843,178,0.524876
267652,172251,170,0,255,0,1,0.00392157,0.0196078,0.270588,170,0.460703
267742,160131,1543,255,0,0,0,0,0.0588235,0.282353,1543,0.460703
267742,160521,1553,255,0,0,0,0,0.0588235,0.282353,1553,0.524876
267832,171111,174,255,0,0,0,0,0.00784314,0.247059,174,0.589049
267982,171111,169,0,255,0,1,0.00392157,0.00784314,0.227451,169,0.328526
268072,171531,169,255,0,0,0,0.00392157,0.00784314,0.270588,169,0.392699
268252,172251,170,0,255,0,1,0.00392157,0.00784314,0.270588,170,0.524876
268972,172791,171,0,255,0,1,0,0.0156863,0.2,171,0.589049
269032,172941,167,255,0,0,0,0,0.00784314,0.176471,167,0.589049
266512,170751,170,0,255,0,1,0,0.180392,0.27451,170,0.524876
240172,170301,233,255,0,0,0,0.00784314,0.0666667,0.298039,233,0.392699
240352,171891,305,0,255,0,1,0.521569,0.054902,0.282353,305,0.589049
240982,175491,23,0,255,0,1,0.00392157,0.105882,0.243137,23,0.392699
241822,174321,131,255,0,0,0,0,0.0745098,0.243137,131,0.589049
242272,173721,433,0,255,0,1,0,0.0627451,0.266667,433,0.589049
242542,172611,472,255,0,0,0,0.415686,0.0627451,0.262745,472,0.524876
242692,172071,440,255,0,0,0,0,0.0666667,0.278431,440,0.460703
242722,170061,425,0,255,0,1,0.027451,0.0509804,0.278431,425,0.392699
243112,179331,756,255,0,0,0,0.00392157,0.00784314,0.270588,756,0.589049
243412,179781,795,255,0,0,0,0.00392157,0.00784314,0.270588,795,0.589049
243502,175911,297,0,255,0,1,0.00392157,0.0980392,0.270588,297,0.328526
243682,176091,298,255,0,0,0,0,0.0980392,0.258824,298,0.589049
244252,179571,788,0,255,0,1,0.00392157,0.00784314,0.270588,788,0.392699
244522,175761,299,0,255,0,1,0,0.0784314,0.27451,299,0.264353
245032,169101,464,0,255,0,1,0,0.0627451,0.266667,464,0.524876
245272,174141,721,255,0,0,0,0,0.0588235,0.282353,721,0.524876
246562,171651,859,255,0,0,0,0,0.0509804,0.258824,859,0.524876
246772,179661,1412,0,255,0,1,0,0.00392157,0.266667,1412,0.460703
246862,171621,904,255,0,0,0,0,0.0509804,0.223529,904,0.392699
246982,172491,307,0,255,0,1,0,0.0784314,0.223529,307,0.524876
247732,171951,300,255,0,0,0,0.00392157,0.0901961,0.184314,300,0.392699
247792,174531,1305,0,255,0,1,0,0.0588235,0.282353,1305,0.589049
247822,167121,573,255,0,0,0,0.356863,0.0941176,0.254902,573,0.59288
248392,175041,1316,255,0,0,0,0,0.0588235,0.27451,1316,0.59288
248812,176001,1214,255,0,0,0,0.00392157,0.0980392,0.270588,1214,0.524876
249232,176871,1266,0,255,0,1,0,0.0823529,0.266667,1266,0.59288
250492,168561,173,0,255,0,1,0.00392157,0.235294,0.227451,173,0.524876
250942,168171,168,0,255,0,1,0.462745,0.0784314,0.270588,168,0.59288
251542,170151,181,0,255,0,1,0,0.101961,0.2,181,0.59288
251872,166161,32,0,255,0,1,0.0196078,0.2,0.25098,32,0.524876
253702,168861,179,255,0,0,0,0,0.0745098,0.282353,179,0.589049
254782,169971,180,0,255,0,1,0,0.227451,0.270588,180,0.132177
255742,164001,275,255,0,0,0,0.6,0.0627451,0.266667,275,0.528707
256222,166491,825,255,0,0,0,0.231373,0.0862745,0.258824,825,0.524876
256432,164871,295,255,0,0,0,0,0.0431373,0.262745,295,0.524876
256762,174681,1662,0,255,0,1,0.376471,0.0823529,0.243137,1662,0.589049
256942,169041,1156,255,0,0,0,0,0.0941176,0.243137,1156,0.264353
257602,174471,1654,0,255,0,1,0.00392157,0.0588235,0.25098,1654,0.59288
257752,174681,1655,255,0,0,0,0.00392157,0.0588235,0.243137,1655,0.589049
257812,163551,271,255,0,0,0,0.00784314,0.0627451,0.247059,271,0.460703
257872,164511,338,0,255,0,1,0,0.0588235,0.27451,338,0.524876
258052,161001,28,255,0,0,0,0,0.0745098,0.282353,28,0.589049
258562,170211,1458,255,0,0,0,0,0.0588235,0.258824,1458,0.460703
259072,161571,32,0,255,0,1,0,0.0627451,0.298039,32,0.524876
259702,159321,55,0,255,0,1,0,0.262745,0.27451,55,0.392699
260152,161721,35,0,255,0,1,0.00392157,0.054902,0.262745,35,0.524876
260272,160671,33,255,0,0,0,0.247059,0.0941176,0.301961,33,0.524876
261202,160191,234,255,0,0,0,0.0117647,0.192157,0.25098,234,0.524876
261262,163671,1043,0,255,0,1,0,0.00392157,0.368627,1043,0.460703
261322,159531,213,0,255,0,1,0,0.0862745,0.247059,213,0.524876
261532,163071,1035,255,0,0,0,0.00392157,0.0117647,0.25098,1035,0.524876
261832,159591,251,255,0,0,0,0,0.0627451,0.266667,251,0.328526
262522,157851,27,255,0,0,0,0.439216,0.054902,0.294118,27,0.528707
262702,162381,429,255,0,0,0,0,0.0823529,0.258824,429,0.524876
263062,160701,441,255,0,0,0,0,0.0588235,0.290196,441,0.328526
265552,151161,31,255,0,0,0,0,0.12549,0.286275,31,0.589049
266032,150981,43,255,0,0,0,0,0.0588235,0.27451,43,0.589049
266482,164181,997,255,0,0,0,0.00392157,0.0627451,0.278431,997,0.589049
266572,166041,172,0,255,0,1,0.00392157,0.0588235,0.196078,172,0.392699
266602,163551,882,0,255,0,1,0,0.0627451,0.298039,882,0.59288
266842,170811,176,0,255,0,1,0,0.105882,0.133333,176,0.392699
266872,160641,1575,255,0,0,0,0,0.0627451,0.266667,1575,0.59288
267112,154521,259,255,0,0,0,0.00392157,0.0745098,0.262745,259,0.392699
267112,167331,164,255,0,0,0,0.278431,0.00784314,0.270588,164,0.392699
267232,167961,166,0,255,0,1,0.0117647,0.00784314,0.266667,166,0.589049
267262,159681,1541,0,255,0,1,0.0156863,0.054902,0.286275,1541,0.524876
267562,172131,163,0,255,0,1,0,0.0117647,0.258824,163,0.524876
267772,171081,172,0,255,0,1,0.00392157,0.00784314,0.262745,172,0.589049
267802,172101,168,0,255,0,1,0,0.00784314,0.270588,168,0.589049
267832,168381,169,255,0,0,0,0,0.00784314,0.231373,169,0.589049
268072,172191,174,0,255,0,1,0.00392157,0.00784314,0.270588,174,0.589049
268102,172161,174,255,0,0,0,0.00392157,0.00784314,0.270588,174,0.589049
268582,170901,177,255,0,0,0,0,0.0352941,0.278431,177,0.589049
268672,171741,169,255,0,0,0,0.0117647,0.00784314,0.266667,169,0.524876
268912,171561,170,255,0,0,0,0,0.00784314,0.247059,170,0.589049
258862,170511,1454,0,255,0,1,0,0.0705882,0.227451,1454,0.524876
250792,168261,165,255,0,0,0,0.0392157,0.160784,0.270588,165,0.524876
240352,174411,434,255,0,0,0,0,0.0588235,0.282353,434,0.132177
240472,173901,438,0,255,0,1,0.00392157,0.0509804,0.270588,438,0.524876
240952,179781,752,255,0,0,0,0.00392157,0.00784314,0.270588,752,0.589049
241162,170631,281,255,0,0,0,0,0.121569,0.294118,281,0.59288
241612,176631,167,255,0,0,0,0.592157,0.00784314,0.266667,167,0.392699
242242,171831,438,0,255,0,1,0.392157,0.105882,0.286275,438,0.59288
242302,172761,456,255,0,0,0,0,0.0705882,0.266667,456,0.328526
242542,171981,446,255,0,0,0,0.505882,0.0666667,0.294118,446,0.19635
242662,170721,439,0,255,0,1,0.0196078,0.117647,0.278431,439,0.524876
242752,176721,299,0,255,0,1,0,0.00784314,0.231373,299,0.589049
244222,179871,800,0,255,0,1,0.00392157,0.00784314,0.270588,800,0.589049
244372,176001,297,0,255,0,1,0,0.105882,0.27451,297,0.524876
245662,169911,294,0,255,0,1,0,0.0705882,0.266667,294,0.589049
245722,173931,756,255,0,0,0,0,0.105882,0.282353,756,0.589049
246832,172521,308,0,255,0,1,0,0.0784314,0.223529,308,0.589049
247642,173781,1097,0,255,0,1,0.270588,0.0509804,0.243137,1097,0.59288
247672,171471,314,0,255,0,1,0,0.0705882,0.219608,314,0.328526
248572,180021,1415,0,255,0,1,0,0.00392157,0.266667,1415,0.524876
249742,167661,175,255,0,0,0,0,0.156863,0.258824,175,0.589049
249922,167631,176,0,255,0,1,0,0.129412,0.266667,176,0.392699
250162,166911,165,255,0,0,0,0,0.0784314,0.27451,165,0.524876
250792,168951,167,0,255,0,1,0,0.184314,0.192157,167,0.589049
251122,165141,40,0,255,0,1,0,0.419608,0.34902,40,0.392699
251812,166161,31,0,255,0,1,0.00784314,0.203922,0.247059,31,0.392699
251842,168741,177,255,0,0,0,0.00392157,0.0745098,0.270588,177,0.524876
252232,166491,36,0,255,0,1,0.054902,0.0823529,0.247059,36,0.460703
252742,167631,224,255,0,0,0,0,0.0392157,0.278431,224,0.59288
256132,174951,1669,255,0,0,0,0.0352941,0.0941176,0.247059,1669,0.528707
256162,171651,995,0,255,0,1,0,0.113725,0.247059,995,0.524876
256192,164841,294,255,0,0,0,0,0.0431373,0.254902,294,0.524876
256612,174201,1633,0,255,0,1,0.0117647,0.0666667,0.258824,1633,0.328526
256822,166851,909,0,255,0,1,0,0.0431373,0.25098,909,0.524876
257632,175071,1655,0,255,0,1,0,0.0588235,0.227451,1655,0.524876
257812,163671,278,255,0,0,0,0,0.0588235,0.27451,278,0.524876
258172,169941,1463,255,0,0,0,0,0.0588235,0.258824,1463,0.328526
258262,161301,36,0,255,0,1,0,0.0627451,0.266667,36,0.589049
258532,160851,66,0,255,0,1,0,0.0431373,0.286275,66,0.392699
258532,161511,35,255,0,0,0,0,0.0431373,0.286275,35,0.528707
258922,159081,47,255,0,0,0,0.290196,0.0627451,0.396078,47,0.524876
259012,178221,1702,0,255,0,1,0.6,0.00392157,0.298039,1702,0.589049
259312,160731,26,0,255,0,1,0.337255,0.0627451,0.298039,26,0.589049
262492,158451,26,0,255,0,1,0,0.0627451,0.254902,26,0.524876
263062,160731,441,0,255,0,1,0,0.0666667,0.286275,441,0.59288
263242,158271,37,255,0,0,0,0,0.0901961,0.215686,37,0.589049
266062,170601,175,0,255,0,1,0,0.203922,0.219608,175,0.524876
266542,170361,170,255,0,0,0,0,0.14902,0.231373,170,0.589049
267112,165381,179,255,0,0,0,0.462745,0.0196078,0.223529,179,0.589049
267112,168831,169,255,0,0,0,0,0.00784314,0.207843,169,0.589049
267202,151311,161,255,0,0,0,0,0.0901961,0.286275,161,0.524876
267232,165801,165,255,0,0,0,0.0745098,0.0117647,0.258824,165,0.589049
267262,165861,166,0,255,0,1,0.0313725,0.0117647,0.270588,166,0.524876
267862,167481,172,255,0,0,0,0,0.00784314,0.231373,172,0.589049
267862,172011,166,255,0,0,0,0.00392157,0.00784314,0.270588,166,0.524876
268192,157011,1447,0,255,0,1,0.294118,0.0666667,0.262745,1447,0.460703
268342,159261,1749,0,255,0,1,0,0.0627451,0.266667,1749,0.524876
268342,159531,1746,0,255,0,1,0,0.0705882,0.266667,1746,0.589049
268432,170901,172,0,255,0,1,0.00392157,0.0313725,0.247059,172,0.524876
268492,172161,171,255,0,0,0,0.00392157,0.00784314,0.270588,171,0.589049
268642,171501,168,0,255,0,1,0,0.00784314,0.239216,168,0.589049
268732,158451,1710,0,255,0,1,0.490196,0.0862745,0.262745,1710,0.524876
268912,172071,168,0,255,0,1,0.00392157,0.00784314,0.270588,168,0.589049
269122,159141,1721,0,255,0,1,0.188235,0.0745098,0.254902,1721,0.328526
240712,176091,31,255,0,0,0,0.00784314,0.0431373,0.258824,31,0.328526
241012,175791,27,255,0,0,0,0,0.0470588,0.243137,27,0.59288
241222,175161,28,255,0,0,0,0,0.121569,0.243137,28,0.589049
241312,179211,737,255,0,0,0,0.00392157,0.00784314,0.270588,737,0.328526
241702,171081,340,0,255,0,1,0.262745,0.0705882,0.278431,340,0.589049
241732,174471,129,0,255,0,1,0.588235,0.0901961,0.25098,129,0.524876
241882,179841,808,255,0,0,0,0.00392157,0.00784314,0.270588,808,0.524876
242212,175071,151,255,0,0,0,0,0.0666667,0.270588,151,0.589049
242332,176211,187,0,255,0,1,0.168627,0.00784314,0.27451,187,0.59288
242722,172281,446,255,0,0,0,0,0.0705882,0.266667,446,0.59288
243352,179241,745,0,255,0,1,0.00392157,0.00784314,0.270588,745,0.328526
243652,170331,483,255,0,0,0,0,0.054902,0.270588,483,0.59288
243652,175821,298,255,0,0,0,0,0.101961,0.278431,298,0.392699
244822,176091,299,255,0,0,0,0,0.105882,0.258824,299,0.264353
245032,174621,705,0,255,0,1,0.00392157,0.054902,0.262745,705,0.59288
245452,174651,755,255,0,0,0,0,0.0627451,0.266667,755,0.392699
245542,177801,1047,0,255,0,1,0,0.00392157,0.258824,1047,0.589049
245602,170451,303,0,255,0,1,0,0.0509804,0.258824,303,0.589049
245902,178911,749,0,255,0,1,0,0.00784314,0.196078,749,0.524876
245992,179061,751,255,0,0,0,0.00392157,0.00784314,0.258824,751,0.59288
246292,175131,303,255,0,0,0,0,0.113725,0.247059,303,0.59288
246682,175821,301,0,255,0,1,0,0.0980392,0.207843,301,0.392699
247372,169791,310,0,255,0,1,0.403922,0.0627451,0.270588,310,0.524876
247462,172281,305,0,255,0,1,0,0.0901961,0.215686,305,0.19635
247732,172011,302,255,0,0,0,0,0.0941176,0.196078,302,0.589049
247762,168981,243,0,255,0,1,0.00392157,0.0666667,0.2,243,0.392699
247792,172011,304,255,0,0,0,0,0.105882,0.211765,304,0.392699
