x,y,z,r,g,b
68,531,5152,255,0,0
69,148,1875,255,0,0
69,149,1921,255,0,0
69,240,1201,255,0,0
69,313,2598,255,0,0
69,431,3300,255,0,0
69,521,4789,255,0,0
69,543,5130,255,0,0
70,114,1729,255,0,0
70,170,2072,255,0,0
70,265,1092,255,0,0
70,374,3423,255,0,0
70,395,3147,255,0,0
70,523,4791,255,0,0
71,87,985,255,0,0
71,94,1837,255,0,0
71,113,1730,255,0,0
71,266,2505,255,0,0
71,311,2603,255,0,0
71,453,4128,255,0,0
72,550,5486,255,0,0
73,63,1738,255,0,0
73,137,2122,255,0,0
73,213,2732,255,0,0
73,333,2720,255,0,0
73,385,4014,255,0,0
73,397,4237,255,0,0
73,449,4284,255,0,0
74,46,1511,255,0,0
74,62,1749,255,0,0
74,78,722,255,0,0
74,113,736,255,0,0
74,567,5439,255,0,0
75,106,1924,255,0,0
75,171,2156,255,0,0
75,382,4232,255,0,0
76,188,2751,255,0,0
76,279,1815,255,0,0
76,356,2834,255,0,0
76,443,4501,255,0,0
77,61,1781,255,0,0
77,120,454,255,0,0
77,234,2566,255,0,0
77,472,4853,255,0,0
77,546,4926,255,0,0
78,159,2010,255,0,0
78,197,2937,255,0,0
78,203,2824,255,0,0
78,267,2524,255,0,0
78,354,2801,255,0,0
78,460,4186,255,0,0
78,522,4936,255,0,0
79,73,1620,255,0,0
79,216,2556,255,0,0
80,98,1935,255,0,0
80,118,1862,255,0,0
80,541,5393,255,0,0
80,544,5166,255,0,0
80,547,5085,255,0,0
81,89,1780,255,0,0
81,90,1788,255,0,0
81,200,2867,255,0,0
81,331,2671,255,0,0
81,342,2965,255,0,0
81,465,4702,255,0,0
81,523,4853,255,0,0
81,534,5243,255,0,0
81,566,5603,255,0,0
82,194,2733,255,0,0
82,430,4462,255,0,0
83,52,871,255,0,0
83,461,4520,255,0,0
83,501,4997,255,0,0
84,92,1794,255,0,0
84,272,2479,255,0,0
84,295,1724,255,0,0
84,312,2605,255,0,0
84,381,3970,255,0,0
84,407,4896,255,0,0
85,459,4458,255,0,0
86,78,1195,255,0,0
86,92,1886,255,0,0
86,286,2490,255,0,0
86,310,2634,255,0,0
86,318,2911,255,0,0
86,418,4954,255,0,0
86,501,4957,255,0,0
86,526,5047,255,0,0
87,367,2936,255,0,0
87,382,4364,255,0,0
87,518,4908,255,0,0
87,552,5060,255,0,0
87,569,5542,255,0,0
87,570,5499,255,0,0
88,114,2326,255,0,0
88,126,1318,255,0,0
88,193,2645,255,0,0
88,385,4815,255,0,0
88,391,4744,255,0,0
88,479,4868,255,0,0
88,499,4853,255,0,0
88,592,4938,255,0,0
89,284,2505,255,0,0
89,434,4818,255,0,0
89,459,4561,255,0,0
89,512,4832,255,0,0
89,518,4970,255,0,0
89,547,5073,255,0,0
89,564,5562,255,0,0
89,579,5025,255,0,0
90,305,2625,255,0,0
90,403,4966,255,0,0
90,437,4611,255,0,0
90,578,5166,255,0,0
91,156,2024,255,0,0
91,169,2179,255,0,0
91,401,4984,255,0,0
91,527,5112,255,0,0
92,61,1736,255,0,0
92,80,1649,255,0,0
92,145,1413,255,0,0
92,201,2609,255,0,0
92,401,4986,255,0,0
92,513,4760,255,0,0
93,46,1311,255,0,0
93,135,1948,255,0,0
94,87,913,255,0,0
94,451,4273,255,0,0
94,452,4255,255,0,0
94,467,4363,255,0,0
94,513,4831,255,0,0
95,103,2062,255,0,0
95,113,2278,255,0,0
95,189,2276,255,0,0
95,268,2501,255,0,0
95,447,4382,255,0,0
95,480,4591,255,0,0
95,547,5019,255,0,0
95,565,5532,255,0,0
96,109,2107,255,0,0
96,180,2322,255,0,0
96,186,2355,255,0,0
96,428,4680,255,0,0
97,168,2280,255,0,0
97,266,2526,255,0,0
97,290,2542,255,0,0
97,296,2601,255,0,0
97,363,3066,255,0,0
97,434,4562,255,0,0
97,473,4206,255,0,0
97,529,5326,255,0,0
98,109,2117,255,0,0
98,373,3418,255,0,0
99,34,1539,255,0,0
99,65,1686,255,0,0
99,197,744,255,0,0
99,214,2669,255,0,0
99,422,4691,255,0,0
100,63,1578,255,0,0
100,320,2801,255,0,0
100,509,4825,255,0,0
100,545,4913,255,0,0
101,128,2145,255,0,0
101,478,4435,255,0,0
102,51,1700,255,0,0
102,148,1890,255,0,0
102,362,3157,255,0,0
102,486,4522,255,0,0
102,499,4874,255,0,0
102,533,5052,255,0,0
102,541,5067,255,0,0
102,567,5104,255,0,0
102,595,5467,255,0,0
103,57,1759,255,0,0
103,120,2122,255,0,0
103,141,2057,255,0,0
103,195,2401,255,0,0
104,300,2841,255,0,0
104,353,2980,255,0,0
104,418,4643,255,0,0
104,440,4548,255,0,0
104,485,4137,255,0,0
104,533,4953,255,0,0
105,312,2719,255,0,0
105,328,2415,255,0,0
105,400,4740,255,0,0
105,454,4342,255,0,0
105,493,4842,255,0,0
106,381,4516,255,0,0
107,56,280,255,0,0
107,119,2128,255,0,0
107,487,4080,255,0,0
107,490,4648,255,0,0
107,514,4813,255,0,0
107,540,4642,255,0,0
108,105,1808,255,0,0
108,287,2564,255,0,0
108,365,3868,255,0,0
108,534,4920,255,0,0
108,555,5206,255,0,0
109,40,1524,255,0,0
109,272,2572,255,0,0
109,477,4189,255,0,0
109,593,5391,255,0,0
110,130,2043,255,0,0
110,151,1954,255,0,0
110,343,2944,255,0,0
110,417,4595,255,0,0
110,511,5134,255,0,0
110,548,5072,255,0,0
110,581,5216,255,0,0
111,12,1448,255,0,0
111,95,1736,255,0,0
111,166,2322,255,0,0
111,168,2254,255,0,0
111,170,2266,255,0,0
111,392,4656,255,0,0
111,412,4581,255,0,0
111,572,5239,255,0,0
112,260,2500,255,0,0
112,384,4186,255,0,0
112,419,4656,255,0,0
112,459,4182,255,0,0
112,560,5644,255,0,0
112,564,5694,255,0,0
112,566,5507,255,0,0
113,50,1518,255,0,0
113,412,4624,255,0,0
113,468,4138,255,0,0
113,530,4893,255,0,0
114,107,1744,255,0,0
114,154,1952,255,0,0
114,365,4067,255,0,0
114,485,3818,255,0,0
114,588,5213,255,0,0
115,179,2325,255,0,0
115,338,3025,255,0,0
115,458,4187,255,0,0
115,508,4993,255,0,0
115,598,5527,255,0,0
116,437,4476,255,0,0
116,455,4188,255,0,0
116,501,4698,255,0,0
117,55,272,255,0,0
117,310,2858,255,0,0
117,387,4240,255,0,0
117,398,4463,255,0,0
117,419,4586,255,0,0
117,423,4578,255,0,0
117,444,4210,255,0,0
117,451,4258,255,0,0
118,29,1552,255,0,0
118,443,4302,255,0,0
118,465,4119,255,0,0
118,484,4043,255,0,0
118,573,5548,255,0,0
118,574,5544,255,0,0
119,53,1529,255,0,0
119,516,4792,255,0,0
120,176,2313,255,0,0
120,508,4770,255,0,0
120,509,4749,255,0,0
120,552,5172,255,0,0
120,586,5406,255,0,0
121,13,1402,255,0,0
121,225,2515,255,0,0
121,373,4072,255,0,0
121,440,4202,255,0,0
121,456,4297,255,0,0
121,472,4221,255,0,0
121,522,4667,255,0,0
121,529,4727,255,0,0
122,250,1424,255,0,0
122,337,2986,255,0,0
122,408,5029,255,0,0
122,551,5149,255,0,0
123,64,1546,255,0,0
123,65,1553,255,0,0
123,94,1655,255,0,0
123,101,1737,255,0,0
123,133,3143,255,0,0
123,419,4627,255,0,0
124,53,621,255,0,0
124,128,2717,255,0,0
124,177,2473,255,0,0
124,382,4106,255,0,0
124,554,5158,255,0,0
124,579,5332,255,0,0
125,57,1127,255,0,0
125,149,2999,255,0,0
125,264,2504,255,0,0
125,406,4869,255,0,0
125,521,4549,255,0,0
125,524,4628,255,0,0
125,550,4771,255,0,0
125,573,5530,255,0,0
126,30,1516,255,0,0
126,102,1984,255,0,0
126,244,2490,255,0,0
126,361,3448,255,0,0
126,487,4159,255,0,0
127,80,307,255,0,0
127,206,2939,255,0,0
127,207,3039,255,0,0
127,271,2600,255,0,0
127,542,4340,255,0,0
127,543,4307,255,0,0
128,119,3041,255,0,0
128,220,3301,255,0,0
128,227,2750,255,0,0
128,228,2729,255,0,0
128,376,3957,255,0,0
129,159,3248,255,0,0
129,383,4061,255,0,0
129,485,4215,255,0,0
129,495,4064,255,0,0
129,502,4135,255,0,0
130,106,3819,255,0,0
130,107,3830,255,0,0
130,126,3804,255,0,0
130,153,3369,255,0,0
130,179,2472,255,0,0
130,269,2524,255,0,0
130,439,4218,255,0,0
130,479,3980,255,0,0
130,487,4077,255,0,0
130,518,4269,255,0,0
131,33,1508,255,0,0
131,171,2568,255,0,0
131,383,4103,255,0,0
132,24,1545,255,0,0
132,36,1518,255,0,0
132,68,1570,255,0,0
132,117,4090,255,0,0
132,239,2455,255,0,0
132,362,3963,255,0,0
132,411,4699,255,0,0
132,422,4633,255,0,0
132,460,4064,255,0,0
133,40,393,255,0,0
133,94,3762,255,0,0
133,96,3775,255,0,0
133,565,4921,255,0,0
133,566,4923,255,0,0
134,29,1234,255,0,0
134,197,3125,255,0,0
134,367,3913,255,0,0
134,402,4526,255,0,0
134,475,4044,255,0,0
135,47,904,255,0,0
135,100,3805,255,0,0
135,149,3866,255,0,0
135,348,3135,255,0,0
135,364,4059,255,0,0
135,402,4385,255,0,0
135,419,4721,255,0,0
135,433,4581,255,0,0
135,517,4188,255,0,0
135,568,5351,255,0,0
136,180,2633,255,0,0
136,197,3890,255,0,0
136,198,3932,255,0,0
136,232,2669,255,0,0
136,323,2924,255,0,0
136,324,2929,255,0,0
136,336,2991,255,0,0
136,543,4125,255,0,0
137,163,4114,255,0,0
137,222,3516,255,0,0
137,391,4072,255,0,0
137,448,4275,255,0,0
138,67,1527,255,0,0
138,79,1602,255,0,0
138,230,2705,255,0,0
138,388,4131,255,0,0
139,430,4556,255,0,0
139,453,4249,255,0,0
139,455,4138,255,0,0
139,576,5594,255,0,0
140,89,3204,255,0,0
140,106,4187,255,0,0
140,128,4037,255,0,0
140,319,2948,255,0,0
140,347,3013,255,0,0
140,366,3923,255,0,0
140,474,3754,255,0,0
140,490,3876,255,0,0
141,312,1839,255,0,0
141,430,4595,255,0,0
141,468,4000,255,0,0
141,490,3870,255,0,0
141,564,5040,255,0,0
142,499,3767,255,0,0
142,524,3944,255,0,0
143,175,4328,255,0,0
143,184,4442,255,0,0
143,196,4201,255,0,0
143,365,3856,255,0,0
143,556,4571,255,0,0
143,562,5036,255,0,0
144,125,3945,255,0,0
144,132,3982,255,0,0
144,422,4785,255,0,0
145,42,1111,255,0,0
145,49,1481,255,0,0
145,140,3963,255,0,0
145,244,1477,255,0,0
145,396,3621,255,0,0
145,483,3783,255,0,0
145,499,3898,255,0,0
145,531,3985,255,0,0
145,587,5458,255,0,0
146,59,1541,255,0,0
146,208,3884,255,0,0
146,393,3467,255,0,0
147,126,3958,255,0,0
147,167,4205,255,0,0
147,228,3051,255,0,0
147,375,3179,255,0,0
147,386,3643,255,0,0
147,425,4473,255,0,0
147,521,3899,255,0,0
147,539,4144,255,0,0
147,585,5434,255,0,0
148,118,4022,255,0,0
148,220,3177,255,0,0
148,547,4502,255,0,0
149,105,4282,255,0,0
149,250,1841,255,0,0
149,285,2555,255,0,0
149,339,2917,255,0,0
149,378,3208,255,0,0
149,403,4327,255,0,0
149,451,4088,255,0,0
150,48,1465,255,0,0
150,60,1490,255,0,0
150,127,3861,255,0,0
150,196,4262,255,0,0
150,269,2548,255,0,0
150,347,3080,255,0,0
150,401,4167,255,0,0
151,108,4133,255,0,0
151,317,2940,255,0,0
151,357,3768,255,0,0
151,378,3182,255,0,0
151,547,4387,255,0,0
151,550,4535,255,0,0
152,111,4047,255,0,0
152,186,4377,255,0,0
152,502,3631,255,0,0
152,565,4789,255,0,0
153,59,418,255,0,0
153,181,4442,255,0,0
153,230,3310,255,0,0
153,244,1047,255,0,0
153,273,766,255,0,0
153,597,5507,255,0,0
154,86,4170,255,0,0
154,97,4407,255,0,0
154,195,4553,255,0,0
154,413,4362,255,0,0
154,453,3979,255,0,0
155,12,972,255,0,0
155,34,1366,255,0,0
155,101,4294,255,0,0
155,346,3018,255,0,0
155,349,3028,255,0,0
155,472,3637,255,0,0
156,62,1516,255,0,0
156,68,2030,255,0,0
156,130,4012,255,0,0
156,582,5166,255,0,0
157,28,107,255,0,0
157,53,1512,255,0,0
157,77,1873,255,0,0
157,163,4069,255,0,0
157,358,3381,255,0,0
157,483,3588,255,0,0
157,484,3778,255,0,0
157,513,3782,255,0,0
157,570,5074,255,0,0
158,375,3234,255,0,0
158,467,3839,255,0,0
158,501,3574,255,0,0
158,535,4054,255,0,0
158,551,4445,255,0,0
158,576,5140,255,0,0
159,149,3940,255,0,0
160,285,2752,255,0,0
160,461,4050,255,0,0
160,589,5440,255,0,0
161,162,4036,255,0,0
161,203,4137,255,0,0
161,280,2704,255,0,0
161,328,2906,255,0,0
161,505,3697,255,0,0
162,255,2580,255,0,0
162,400,3403,255,0,0
162,491,3544,255,0,0
162,492,3565,255,0,0
162,515,3946,255,0,0
162,522,3994,255,0,0
162,578,5252,255,0,0
163,18,1412,255,0,0
163,110,4193,255,0,0
163,181,4488,255,0,0
163,210,3698,255,0,0
163,215,3758,255,0,0
163,262,2654,255,0,0
163,308,2899,255,0,0
163,379,3246,255,0,0
163,391,3433,255,0,0
163,461,3852,255,0,0
163,530,3965,255,0,0
164,94,4347,255,0,0
164,149,3817,255,0,0
164,201,4073,255,0,0
164,308,2944,255,0,0
164,344,2899,255,0,0
164,549,4503,255,0,0
165,76,1982,255,0,0
165,315,2916,255,0,0
165,497,3607,255,0,0
165,599,5332,255,0,0
166,54,1612,255,0,0
166,273,2703,255,0,0
166,317,2919,255,0,0
166,471,3668,255,0,0
166,515,3975,255,0,0
167,24,1809,255,0,0
167,28,1574,255,0,0
167,70,2102,255,0,0
167,149,3980,255,0,0
167,248,2600,255,0,0
167,563,4852,255,0,0
168,122,3985,255,0,0
168,155,3969,255,0,0
168,166,4277,255,0,0
168,242,2826,255,0,0
168,303,3092,255,0,0
168,323,2902,255,0,0
168,366,3200,255,0,0
168,573,5230,255,0,0
169,57,1731,255,0,0
169,116,4054,255,0,0
169,118,4014,255,0,0
169,172,4359,255,0,0
169,173,4360,255,0,0
169,235,2863,255,0,0
169,560,4778,255,0,0
170,181,4386,255,0,0
170,190,4245,255,0,0
170,201,4338,255,0,0
170,399,3260,255,0,0
171,118,3885,255,0,0
171,134,3532,255,0,0
171,140,3635,255,0,0
171,202,3698,255,0,0
171,370,3154,255,0,0
171,456,4111,255,0,0
171,493,3529,255,0,0
171,543,4787,255,0,0
172,1,1429,255,0,0
172,77,4233,255,0,0
172,97,4214,255,0,0
172,187,4123,255,0,0
172,491,3756,255,0,0
173,48,1793,255,0,0
173,167,4174,255,0,0
173,373,3200,255,0,0
173,374,3223,255,0,0
173,394,3187,255,0,0
173,599,5319,255,0,0
174,25,1805,255,0,0
174,96,4153,255,0,0
174,322,2842,255,0,0
174,488,3751,255,0,0
174,514,3924,255,0,0
174,544,4694,255,0,0
174,551,4681,255,0,0
175,50,1762,255,0,0
175,139,3742,255,0,0
175,275,3002,255,0,0
175,570,5116,255,0,0
175,574,5204,255,0,0
175,594,5239,255,0,0
176,70,2661,255,0,0
176,105,4312,255,0,0
176,227,3780,255,0,0
176,289,1603,255,0,0
176,350,2877,255,0,0
176,496,3643,255,0,0
176,533,4378,255,0,0
177,72,4155,255,0,0
177,323,2897,255,0,0
178,39,1935,255,0,0
178,95,4023,255,0,0
178,122,3720,255,0,0
178,219,3775,255,0,0
178,357,2962,255,0,0
178,388,3158,255,0,0
178,477,3718,255,0,0
179,0,1781,255,0,0
179,224,3911,255,0,0
179,330,2867,255,0,0
179,409,3425,255,0,0
179,478,3730,255,0,0
180,166,4056,255,0,0
180,296,2958,255,0,0
180,344,2903,255,0,0
180,535,4419,255,0,0
180,556,4509,255,0,0
181,31,4543,255,0,0
181,95,4040,255,0,0
181,134,3595,255,0,0
181,159,4107,255,0,0
181,377,2988,255,0,0
181,457,4004,255,0,0
181,528,4376,255,0,0
181,529,4376,255,0,0
181,575,5263,255,0,0
182,6,1940,255,0,0
182,226,4166,255,0,0
182,509,3872,255,0,0
182,517,4156,255,0,0
182,531,4383,255,0,0
183,46,4535,255,0,0
183,141,3752,255,0,0
183,292,3019,255,0,0
183,341,2886,255,0,0
183,349,2935,255,0,0
183,377,3004,255,0,0
183,481,3830,255,0,0
183,493,3829,255,0,0
183,585,5360,255,0,0
184,121,3491,255,0,0
184,161,2783,255,0,0
184,272,2774,255,0,0
184,575,5265,255,0,0
185,69,2914,255,0,0
185,120,3606,255,0,0
185,255,2991,255,0,0
185,409,3369,255,0,0
185,411,3461,255,0,0
185,412,3547,255,0,0
185,454,3896,255,0,0
185,468,3909,255,0,0
185,503,4040,255,0,0
185,506,3941,255,0,0
185,575,5258,255,0,0
186,63,3163,255,0,0
186,184,3587,255,0,0
186,206,3526,255,0,0
186,231,4001,255,0,0
186,312,2907,255,0,0
186,383,3091,255,0,0
186,550,4320,255,0,0
187,18,3925,255,0,0
187,170,3987,255,0,0
187,531,4466,255,0,0
187,578,5256,255,0,0
188,18,4420,255,0,0
188,95,4060,255,0,0
188,176,3540,255,0,0
188,249,3096,255,0,0
188,306,2909,255,0,0
188,353,2987,255,0,0
189,36,4873,255,0,0
189,81,4276,255,0,0
189,106,3798,255,0,0
189,347,2941,255,0,0
190,238,3839,255,0,0
190,345,2882,255,0,0
190,372,3032,255,0,0
190,390,3154,255,0,0
190,481,4069,255,0,0
190,535,4754,255,0,0
190,575,5026,255,0,0
191,59,4584,255,0,0
191,150,3601,255,0,0
191,268,3016,255,0,0
191,362,2957,255,0,0
192,109,3774,255,0,0
192,113,3824,255,0,0
192,120,3713,255,0,0
192,148,3382,255,0,0
192,178,3522,255,0,0
192,269,2998,255,0,0
193,204,3514,255,0,0
193,510,3911,255,0,0
193,551,4247,255,0,0
194,96,4055,255,0,0
194,110,3802,255,0,0
194,248,3378,255,0,0
194,301,2873,255,0,0
194,394,3215,255,0,0
194,401,3310,255,0,0
194,526,4638,255,0,0
195,149,3381,255,0,0
195,167,3249,255,0,0
195,192,3285,255,0,0
195,210,3758,255,0,0
195,245,3275,255,0,0
195,458,4139,255,0,0
195,487,4000,255,0,0
195,542,4470,255,0,0
195,564,4608,255,0,0
195,585,5297,255,0,0
196,6,4294,255,0,0
196,536,4603,255,0,0
196,571,4871,255,0,0
197,0,4114,255,0,0
197,20,5560,255,0,0
198,228,4123,255,0,0
198,272,3145,255,0,0
198,462,4132,255,0,0
198,511,4017,255,0,0
198,592,5298,255,0,0
199,75,4077,255,0,0
199,473,4143,255,0,0
199,539,4529,255,0,0
200,14,5539,255,0,0
200,52,4321,255,0,0
200,74,4081,255,0,0
200,96,3847,255,0,0
200,190,3402,255,0,0
200,214,3717,255,0,0
200,296,2876,255,0,0
200,486,4297,255,0,0
201,40,4560,255,0,0
201,133,3348,255,0,0
201,159,3014,255,0,0
201,197,3409,255,0,0
201,201,3421,255,0,0
201,266,3349,255,0,0
201,330,2889,255,0,0
201,452,3913,255,0,0
201,506,4024,255,0,0
202,37,4619,255,0,0
202,181,3337,255,0,0
202,233,4078,255,0,0
202,341,2883,255,0,0
202,472,4178,255,0,0
202,474,4152,255,0,0
202,591,5332,255,0,0
203,5,5392,255,0,0
203,110,3761,255,0,0
203,155,3047,255,0,0
203,185,3328,255,0,0
203,246,2994,255,0,0
203,252,2965,255,0,0
203,341,2922,255,0,0
203,559,4171,255,0,0
204,37,4573,255,0,0
204,125,3290,255,0,0
204,224,3894,255,0,0
204,308,2937,255,0,0
205,21,5521,255,0,0
205,62,4207,255,0,0
205,70,4270,255,0,0
205,91,3751,255,0,0
205,125,3335,255,0,0
205,151,3028,255,0,0
205,500,4118,255,0,0
206,31,5047,255,0,0
206,79,3998,255,0,0
206,182,3297,255,0,0
206,412,3727,255,0,0
206,492,4225,255,0,0
206,494,4137,255,0,0
206,521,4343,255,0,0
207,52,4350,255,0,0
207,85,3772,255,0,0
207,318,2899,255,0,0
207,320,2908,255,0,0
207,389,3187,255,0,0
207,504,4253,255,0,0
208,1,5340,255,0,0
208,87,3779,255,0,0
208,125,3583,255,0,0
208,204,3153,255,0,0
208,293,2421,255,0,0
208,311,2967,255,0,0
208,496,4226,255,0,0
208,545,3888,255,0,0
208,573,4555,255,0,0
209,399,3293,255,0,0
209,410,3503,255,0,0
209,447,3912,255,0,0
210,260,3072,255,0,0
210,345,2936,255,0,0
210,572,4243,255,0,0
211,36,4985,255,0,0
211,71,4059,255,0,0
211,103,3670,255,0,0
211,148,3162,255,0,0
211,160,2905,255,0,0
211,205,3140,255,0,0
212,97,3633,255,0,0
212,130,3217,255,0,0
212,197,2982,255,0,0
212,204,3139,255,0,0
212,353,2984,255,0,0
212,470,4306,255,0,0
212,558,4051,255,0,0
213,208,3097,255,0,0
213,279,2893,255,0,0
213,450,3948,255,0,0
213,516,4277,255,0,0
213,522,4293,255,0,0
213,567,4175,255,0,0
214,61,4263,255,0,0
214,139,3011,255,0,0
214,154,2794,255,0,0
214,163,2959,255,0,0
214,224,2925,255,0,0
214,559,4046,255,0,0
215,54,4498,255,0,0
215,137,3003,255,0,0
215,173,2862,255,0,0
215,301,1633,255,0,0
215,581,4996,255,0,0
216,226,2962,255,0,0
216,388,3050,255,0,0
216,464,4409,255,0,0
217,22,5529,255,0,0
217,76,3861,255,0,0
217,115,3573,255,0,0
217,454,3888,255,0,0
217,584,5137,255,0,0
218,30,4941,255,0,0
218,34,4903,255,0,0
218,105,3539,255,0,0
218,189,2899,255,0,0
218,256,2935,255,0,0
219,86,3881,255,0,0
219,93,3485,255,0,0
219,233,2965,255,0,0
219,344,2939,255,0,0
219,403,3338,255,0,0
219,460,4524,255,0,0
219,466,4500,255,0,0
219,545,3865,255,0,0
219,556,4011,255,0,0
219,587,5176,255,0,0
220,11,5126,255,0,0
220,23,5150,255,0,0
220,312,2931,255,0,0
220,396,3225,255,0,0
220,528,4096,255,0,0
221,486,4454,255,0,0
221,489,4462,255,0,0
221,510,4481,255,0,0
222,109,3373,255,0,0
222,468,4525,255,0,0
222,530,3873,255,0,0
222,563,4097,255,0,0
223,80,3940,255,0,0
223,553,4010,255,0,0
223,599,5175,255,0,0
224,35,4861,255,0,0
224,184,2894,255,0,0
224,325,2971,255,0,0
224,389,3144,255,0,0
224,547,3862,255,0,0
225,44,4749,255,0,0
225,107,3483,255,0,0
225,133,2917,255,0,0
225,390,3148,255,0,0
225,527,3978,255,0,0
225,580,4594,255,0,0
226,131,2924,255,0,0
226,331,2915,255,0,0
226,358,3056,255,0,0
226,412,3475,255,0,0
227,48,4884,255,0,0
227,55,4823,255,0,0
227,113,3266,255,0,0
227,115,3272,255,0,0
227,306,2976,255,0,0
228,82,3952,255,0,0
228,83,3945,255,0,0
228,121,3420,255,0,0
228,139,2808,255,0,0
229,76,4024,255,0,0
229,167,2850,255,0,0
229,178,2669,255,0,0
229,539,3916,255,0,0
230,61,4670,255,0,0
230,187,2669,255,0,0
230,432,3544,255,0,0
230,466,4447,255,0,0
230,571,4523,255,0,0
231,38,4783,255,0,0
231,144,2681,255,0,0
231,210,2805,255,0,0
231,332,2919,255,0,0
231,368,3138,255,0,0
231,549,4021,255,0,0
232,16,5227,255,0,0
232,115,3347,255,0,0
232,266,2719,255,0,0
232,310,3216,255,0,0
232,359,3168,255,0,0
233,89,3795,255,0,0
234,63,4433,255,0,0
234,151,2864,255,0,0
234,277,2946,255,0,0
234,574,4907,255,0,0
235,152,2866,255,0,0
235,582,4889,255,0,0
236,19,5213,255,0,0
236,34,4773,255,0,0
236,128,2885,255,0,0
236,160,2632,255,0,0
236,257,2736,255,0,0
236,386,3315,255,0,0
236,412,3283,255,0,0
236,448,3766,255,0,0
237,102,3739,255,0,0
237,197,2608,255,0,0
237,213,2796,255,0,0
237,247,1956,255,0,0
237,467,4580,255,0,0
237,551,4122,255,0,0
237,599,4762,255,0,0
238,195,2626,255,0,0
238,317,2972,255,0,0
238,414,3402,255,0,0
238,418,3407,255,0,0
238,439,3829,255,0,0
238,535,4054,255,0,0
238,588,4921,255,0,0
239,43,4710,255,0,0
239,353,3323,255,0,0
239,450,3763,255,0,0
239,483,4660,255,0,0
239,596,4795,255,0,0
240,41,4714,255,0,0
240,100,3768,255,0,0
241,29,4879,255,0,0
241,102,3686,255,0,0
241,460,4350,255,0,0
241,513,4417,255,0,0
241,524,4211,255,0,0
241,561,4268,255,0,0
241,583,5379,255,0,0
242,95,3795,255,0,0
242,421,3322,255,0,0
242,508,4621,255,0,0
243,114,3360,255,0,0
243,144,2703,255,0,0
243,168,2696,255,0,0
243,194,2689,255,0,0
243,330,1876,255,0,0
243,529,4257,255,0,0
244,183,2724,255,0,0
244,189,2716,255,0,0
244,401,3290,255,0,0
245,91,3660,255,0,0
245,159,2459,255,0,0
245,259,2886,255,0,0
245,312,2960,255,0,0
245,334,3036,255,0,0
245,531,4390,255,0,0
245,589,5096,255,0,0
246,9,5225,255,0,0
246,193,2733,255,0,0
246,234,2767,255,0,0
246,545,4329,255,0,0
247,25,4906,255,0,0
247,74,4011,255,0,0
247,89,3637,255,0,0
247,131,2713,255,0,0
247,348,3388,255,0,0
247,352,3289,255,0,0
247,369,2823,255,0,0
247,599,4841,255,0,0
248,7,5228,255,0,0
248,8,5222,255,0,0
248,57,4407,255,0,0
248,85,3484,255,0,0
248,87,3641,255,0,0
248,355,3317,255,0,0
248,444,3530,255,0,0
248,557,4319,255,0,0
248,577,5973,255,0,0
248,599,4837,255,0,0
249,53,4516,255,0,0
249,70,4232,255,0,0
249,133,2656,255,0,0
249,143,2671,255,0,0
249,215,2785,255,0,0
249,339,3211,255,0,0
249,340,3218,255,0,0
249,499,4210,255,0,0
249,507,4619,255,0,0
249,548,4375,255,0,0
249,569,5906,255,0,0
250,51,4501,255,0,0
250,79,3965,255,0,0
250,116,3130,255,0,0
250,133,2636,255,0,0
250,195,2796,255,0,0
250,341,3239,255,0,0
250,562,4827,255,0,0
251,62,4232,255,0,0
251,89,3629,255,0,0
251,195,2752,255,0,0
251,395,3338,255,0,0
251,527,5025,255,0,0
252,15,5163,255,0,0
252,111,3267,255,0,0
252,254,2987,255,0,0
252,396,3337,255,0,0
253,332,3104,255,0,0
253,366,3318,255,0,0
253,506,4610,255,0,0
253,548,4406,255,0,0
253,559,5074,255,0,0
254,127,2872,255,0,0
254,209,2571,255,0,0
254,241,2666,255,0,0
255,17,5165,255,0,0
255,135,2637,255,0,0
255,144,2474,255,0,0
255,149,2349,255,0,0
255,155,2415,255,0,0
255,171,2550,255,0,0
255,176,2659,255,0,0
255,510,4589,255,0,0
256,17,5165,255,0,0
256,30,4916,255,0,0
256,202,2727,255,0,0
256,583,5272,255,0,0
257,45,4578,255,0,0
257,48,4572,255,0,0
257,117,3024,255,0,0
257,133,2665,255,0,0
257,553,5031,255,0,0
257,567,5668,255,0,0
258,17,5145,255,0,0
258,65,4225,255,0,0
258,110,3147,255,0,0
258,316,2989,255,0,0
258,422,3349,255,0,0
258,566,5627,255,0,0
259,98,3742,255,0,0
259,140,2657,255,0,0
259,144,2497,255,0,0
259,214,2407,255,0,0
259,343,3219,255,0,0
259,368,3335,255,0,0
259,379,3274,255,0,0
259,422,3343,255,0,0
259,544,5202,255,0,0
260,66,4223,255,0,0
260,196,2529,255,0,0
260,315,3090,255,0,0
260,510,4466,255,0,0
260,526,4790,255,0,0
261,85,3529,255,0,0
261,104,3170,255,0,0
261,125,2932,255,0,0
261,134,2704,255,0,0
261,170,2516,255,0,0
261,176,2471,255,0,0
261,196,2525,255,0,0
262,516,4880,255,0,0
263,79,3603,255,0,0
263,190,2560,255,0,0
263,325,3231,255,0,0
263,537,5107,255,0,0
264,9,4029,255,0,0
264,166,2322,255,0,0
264,181,2352,255,0,0
264,326,3395,255,0,0
264,533,4840,255,0,0
264,549,5256,255,0,0
265,100,3112,255,0,0
265,127,2648,255,0,0
265,155,2245,255,0,0
265,183,2440,255,0,0
265,196,2500,255,0,0
265,531,4902,255,0,0
266,117,2933,255,0,0
266,262,2753,255,0,0
266,516,4436,255,0,0
267,46,4468,255,0,0
267,189,2574,255,0,0
267,256,2832,255,0,0
267,346,3253,255,0,0
267,586,5428,255,0,0
268,74,3727,255,0,0
269,135,2642,255,0,0
269,581,5328,255,0,0
270,61,4203,255,0,0
270,90,3353,255,0,0
270,159,2278,255,0,0
270,201,2588,255,0,0
270,361,3279,255,0,0
270,509,4212,255,0,0
270,587,5313,255,0,0
271,47,4333,255,0,0
271,79,3527,255,0,0
271,98,3139,255,0,0
271,135,2650,255,0,0
271,163,2345,255,0,0
271,184,2511,255,0,0
271,329,3066,255,0,0
271,351,2892,255,0,0
271,574,5010,255,0,0
271,580,5299,255,0,0
272,114,3028,255,0,0
272,574,5011,255,0,0
273,0,4760,255,0,0
273,50,4348,255,0,0
273,297,2922,255,0,0
273,340,3045,255,0,0
273,565,4945,255,0,0
273,586,5355,255,0,0
273,593,5354,255,0,0
274,69,3926,255,0,0
274,169,2433,255,0,0
274,202,2564,255,0,0
274,308,3075,255,0,0
274,503,4202,255,0,0
274,544,5542,255,0,0
274,555,5273,255,0,0
275,6,4934,255,0,0
275,562,4899,255,0,0
276,70,3927,255,0,0
276,143,2495,255,0,0
276,188,2457,255,0,0
276,220,2486,255,0,0
276,253,2645,255,0,0
276,316,3095,255,0,0
277,27,4589,255,0,0
277,36,4576,255,0,0
277,41,4363,255,0,0
277,120,3080,255,0,0
277,149,2550,255,0,0
277,154,2373,255,0,0
277,175,2427,255,0,0
277,201,2529,255,0,0
278,78,3480,255,0,0
278,214,2400,255,0,0
278,300,3105,255,0,0
278,334,3020,255,0,0
279,102,3406,255,0,0
279,359,3539,255,0,0
280,14,4798,255,0,0
280,329,3023,255,0,0
280,558,4927,255,0,0
281,185,2418,255,0,0
281,207,2341,255,0,0
282,54,4428,255,0,0
282,507,4119,255,0,0
282,511,4130,255,0,0
282,553,4976,255,0,0
282,564,4699,255,0,0
283,73,3725,255,0,0
283,125,2841,255,0,0
283,175,2412,255,0,0
283,353,3428,255,0,0
283,532,4424,255,0,0
283,570,4983,255,0,0
284,108,3337,255,0,0
284,370,3276,255,0,0
284,544,5257,255,0,0
284,558,4770,255,0,0
285,71,4160,255,0,0
285,99,3810,255,0,0
285,101,3724,255,0,0
285,115,3173,255,0,0
285,124,2921,255,0,0
285,126,2735,255,0,0
285,254,2743,255,0,0
285,296,2950,255,0,0
285,375,3369,255,0,0
285,518,4497,255,0,0
285,543,5228,255,0,0
286,9,5009,255,0,0
286,31,4750,255,0,0
286,82,3771,255,0,0
286,221,2536,255,0,0
286,332,3301,255,0,0
286,536,4358,255,0,0
287,119,2951,255,0,0
287,177,2499,255,0,0
287,221,2540,255,0,0
287,251,2520,255,0,0
288,132,2590,255,0,0
288,143,2658,255,0,0
288,203,2383,255,0,0
288,276,2880,255,0,0
288,381,3258,255,0,0
289,50,4279,255,0,0
289,79,4277,255,0,0
289,103,3591,255,0,0
289,166,2521,255,0,0
289,191,2403,255,0,0
289,203,2436,255,0,0
289,298,3042,255,0,0
289,527,4280,255,0,0
290,134,2541,255,0,0
290,173,2543,255,0,0
290,203,2527,255,0,0
290,278,2868,255,0,0
290,286,3030,255,0,0
290,320,3053,255,0,0
290,572,4828,255,0,0
291,49,4379,255,0,0
291,582,5315,255,0,0
292,78,4317,255,0,0
292,88,4152,255,0,0
292,119,2996,255,0,0
292,151,2488,255,0,0
292,230,2384,255,0,0
292,266,2914,255,0,0
292,531,4201,255,0,0
292,573,4819,255,0,0
293,192,2454,255,0,0
293,240,1909,255,0,0
293,267,2918,255,0,0
293,337,3341,255,0,0
293,534,4176,255,0,0
293,536,4167,255,0,0
294,72,4336,255,0,0
294,154,2705,255,0,0
294,173,2684,255,0,0
294,192,2446,255,0,0
294,302,3463,255,0,0
294,551,4615,255,0,0
295,15,4728,255,0,0
295,32,4643,255,0,0
295,154,2709,255,0,0
295,160,2706,255,0,0
295,199,2551,255,0,0
295,204,2546,255,0,0
295,222,2366,255,0,0
295,254,2685,255,0,0
295,322,3060,255,0,0
295,377,3185,255,0,0
296,146,2683,255,0,0
296,160,2737,255,0,0
296,345,3363,255,0,0
296,575,4532,255,0,0
297,52,4523,255,0,0
297,529,4012,255,0,0
297,581,5061,255,0,0
298,25,5121,255,0,0
298,353,3219,255,0,0
299,30,4849,255,0,0
299,49,4625,255,0,0
299,85,4474,255,0,0
299,322,4251,255,0,0
300,137,2770,255,0,0
300,182,2552,255,0,0
300,599,4791,255,0,0
301,64,4461,255,0,0
301,178,2468,255,0,0
301,222,2504,255,0,0
301,509,3860,255,0,0
302,59,4552,255,0,0
302,205,2830,255,0,0
302,219,2480,255,0,0
302,232,2356,255,0,0
302,233,2344,255,0,0
302,283,3121,255,0,0
302,345,3386,255,0,0
302,589,4853,255,0,0
303,283,3089,255,0,0
303,346,3292,255,0,0
303,366,3328,255,0,0
303,513,3700,255,0,0
303,519,3735,255,0,0
303,568,4252,255,0,0
303,572,4469,255,0,0
304,92,4405,255,0,0
304,320,4289,255,0,0
304,343,3565,255,0,0
304,562,4246,255,0,0
305,6,4645,255,0,0
305,181,2591,255,0,0
305,187,2514,255,0,0
305,259,2667,255,0,0
305,516,3744,255,0,0
305,554,4094,255,0,0
306,74,4556,255,0,0
306,121,3081,255,0,0
306,253,2620,255,0,0
306,255,2637,255,0,0
306,545,4172,255,0,0
307,82,4277,255,0,0
307,132,2877,255,0,0
307,144,2721,255,0,0
307,236,2670,255,0,0
307,303,3857,255,0,0
307,334,3514,255,0,0
308,90,4339,255,0,0
308,97,4387,255,0,0
308,99,4434,255,0,0
308,121,3135,255,0,0
308,163,2630,255,0,0
308,218,2479,255,0,0
308,286,3530,255,0,0
308,301,3829,255,0,0
308,518,3730,255,0,0
308,568,4290,255,0,0
309,19,4605,255,0,0
309,21,4647,255,0,0
309,51,4432,255,0,0
309,86,4338,255,0,0
309,126,3013,255,0,0
309,194,2388,255,0,0
309,237,2738,255,0,0
309,284,3522,255,0,0
309,309,4136,255,0,0
309,496,3651,255,0,0
309,540,4154,255,0,0
309,575,4340,255,0,0
310,1,4322,255,0,0
310,43,4540,255,0,0
310,64,4310,255,0,0
311,83,3974,255,0,0
311,104,4121,255,0,0
311,176,2463,255,0,0
311,235,2661,255,0,0
311,241,2700,255,0,0
311,281,3366,255,0,0
311,540,4743,255,0,0
311,596,4950,255,0,0
312,248,2928,255,0,0
312,267,2566,255,0,0
312,339,4012,255,0,0
312,346,3512,255,0,0
312,574,4950,255,0,0
313,110,3856,255,0,0
313,206,2758,255,0,0
313,208,2664,255,0,0
313,275,2726,255,0,0
313,296,3554,255,0,0
313,314,4144,255,0,0
314,2,4086,255,0,0
314,290,3414,255,0,0
314,295,3523,255,0,0
314,366,3407,255,0,0
314,520,3661,255,0,0
314,547,5371,255,0,0
314,598,5003,255,0,0
315,0,3854,255,0,0
315,115,3444,255,0,0
315,119,3275,255,0,0
315,134,3096,255,0,0
315,149,3045,255,0,0
315,573,5000,255,0,0
316,41,4548,255,0,0
316,146,3058,255,0,0
316,365,3416,255,0,0
316,530,3978,255,0,0
317,14,3718,255,0,0
317,24,4618,255,0,0
317,33,4690,255,0,0
317,150,3009,255,0,0
317,168,2473,255,0,0
317,366,3417,255,0,0
317,584,4659,255,0,0
318,105,4191,255,0,0
318,154,2872,255,0,0
318,163,2923,255,0,0
318,164,2908,255,0,0
318,200,2629,255,0,0
318,316,3976,255,0,0
318,495,3705,255,0,0
318,519,3713,255,0,0
318,547,5525,255,0,0
318,580,4975,255,0,0
319,59,4271,255,0,0
319,188,2414,255,0,0
319,196,2509,255,0,0
319,221,2639,255,0,0
319,251,2875,255,0,0
319,292,3500,255,0,0
319,326,4088,255,0,0
319,360,3402,255,0,0
319,555,5764,255,0,0
320,62,4224,255,0,0
320,135,3039,255,0,0
320,167,2605,255,0,0
320,174,2282,255,0,0
320,307,3853,255,0,0
320,333,4436,255,0,0
320,526,3966,255,0,0
321,103,3929,255,0,0
321,183,2357,255,0,0
321,203,2749,255,0,0
322,118,3321,255,0,0
323,18,4296,255,0,0
323,141,3136,255,0,0
323,146,3088,255,0,0
323,207,2691,255,0,0
323,231,2556,255,0,0
323,560,5442,255,0,0
323,585,4837,255,0,0
324,81,4033,255,0,0
324,351,4470,255,0,0
325,6,4071,255,0,0
326,58,4272,255,0,0
326,97,3880,255,0,0
326,194,2548,255,0,0
326,331,4203,255,0,0
326,340,4606,255,0,0
327,15,4613,255,0,0
327,40,4784,255,0,0
327,164,3018,255,0,0
327,227,2750,255,0,0
327,228,2712,255,0,0
327,274,3440,255,0,0
328,96,3802,255,0,0
328,132,3381,255,0,0
328,232,2713,255,0,0
328,265,3242,255,0,0
328,352,4550,255,0,0
328,547,5393,255,0,0
329,13,4549,255,0,0
329,76,4087,255,0,0
329,136,3132,255,0,0
329,246,2890,255,0,0
329,326,4353,255,0,0
329,560,5704,255,0,0
330,68,4203,255,0,0
330,124,3180,255,0,0
330,198,2409,255,0,0
330,236,2499,255,0,0
330,561,5618,255,0,0
331,292,3259,255,0,0
331,334,4337,255,0,0
331,582,5828,255,0,0
332,38,4873,255,0,0
332,48,4625,255,0,0
332,76,4098,255,0,0
332,192,2685,255,0,0
332,241,2892,255,0,0
332,253,3188,255,0,0
333,101,3945,255,0,0
333,118,3496,255,0,0
333,224,2841,255,0,0
333,310,3620,255,0,0
333,543,5397,255,0,0
333,568,5574,255,0,0
334,16,4550,255,0,0
334,123,3368,255,0,0
334,181,3697,255,0,0
334,262,3292,255,0,0
334,287,3081,255,0,0
334,460,3715,255,0,0
334,577,5944,255,0,0
334,591,6335,255,0,0
335,123,3457,255,0,0
335,277,3430,255,0,0
335,310,3586,255,0,0
335,346,4416,255,0,0
335,492,3678,255,0,0
335,585,6138,255,0,0
336,48,4791,255,0,0
336,147,3143,255,0,0
336,162,3595,255,0,0
336,165,3800,255,0,0
336,276,3311,255,0,0
336,326,4178,255,0,0
336,536,5101,255,0,0
337,127,3351,255,0,0
337,133,3361,255,0,0
337,159,3606,255,0,0
337,195,3117,255,0,0
338,101,3901,255,0,0
338,154,3457,255,0,0
338,173,3564,255,0,0
338,187,3940,255,0,0
338,219,2746,255,0,0
338,267,3258,255,0,0
338,286,3051,255,0,0
338,297,3406,255,0,0
338,298,3440,255,0,0
338,308,3796,255,0,0
338,555,5342,255,0,0
339,156,3469,255,0,0
339,218,2717,255,0,0
339,339,4411,255,0,0
340,118,3521,255,0,0
340,172,3838,255,0,0
340,483,3781,255,0,0
340,532,5086,255,0,0
341,0,1777,255,0,0
341,23,4615,255,0,0
341,153,3549,255,0,0
341,180,3925,255,0,0
341,316,3728,255,0,0
341,460,3698,255,0,0
341,540,5064,255,0,0
341,556,5411,255,0,0
341,576,6189,255,0,0
342,10,1949,255,0,0
342,91,4056,255,0,0
342,200,3465,255,0,0
342,502,4119,255,0,0
342,597,6251,255,0,0
342,599,6267,255,0,0
343,3,2085,255,0,0
343,220,2876,255,0,0
343,597,6238,255,0,0
344,27,4833,255,0,0
344,144,3303,255,0,0
344,268,3011,255,0,0
344,367,4555,255,0,0
345,65,4352,255,0,0
345,209,3317,255,0,0
345,222,2881,255,0,0
345,288,3159,255,0,0
345,308,4136,255,0,0
345,341,4383,255,0,0
345,350,4495,255,0,0
346,50,4736,255,0,0
346,139,3447,255,0,0
346,150,3608,255,0,0
346,176,3958,255,0,0
346,246,2985,255,0,0
346,325,3968,255,0,0
347,18,2828,255,0,0
347,148,3497,255,0,0
347,211,3402,255,0,0
347,462,3714,255,0,0
347,506,4112,255,0,0
347,538,4984,255,0,0
348,18,2749,255,0,0
348,44,5053,255,0,0
348,173,3972,255,0,0
348,238,3014,255,0,0
348,312,4024,255,0,0
348,512,4343,255,0,0
349,230,2933,255,0,0
349,331,4020,255,0,0
349,571,6374,255,0,0
349,574,6367,255,0,0
350,115,3582,255,0,0
350,208,3546,255,0,0
350,241,3018,255,0,0
350,244,2940,255,0,0
350,266,3061,255,0,0
350,595,6481,255,0,0
351,166,4101,255,0,0
351,197,3573,255,0,0
351,307,4548,255,0,0
351,336,4206,255,0,0
351,356,4463,255,0,0
351,357,4550,255,0,0
351,556,5762,255,0,0
352,60,4447,255,0,0
352,88,4028,255,0,0
352,267,3188,255,0,0
352,467,3714,255,0,0
352,519,4440,255,0,0
352,578,6517,255,0,0
353,17,2104,255,0,0
353,92,3882,255,0,0
353,101,3828,255,0,0
353,284,3262,255,0,0
353,560,5589,255,0,0
354,255,3015,255,0,0
354,257,2864,255,0,0
354,263,3156,255,0,0
355,63,4376,255,0,0
355,72,4178,255,0,0
355,236,3276,255,0,0
355,536,5162,255,0,0
355,574,6265,255,0,0
355,589,6537,255,0,0
356,42,2994,255,0,0
356,212,3616,255,0,0
356,357,4512,255,0,0
357,126,3608,255,0,0
357,162,4273,255,0,0
358,73,4122,255,0,0
358,74,4130,255,0,0
358,126,3606,255,0,0
358,128,3701,255,0,0
358,229,3131,255,0,0
358,335,4309,255,0,0
358,355,4545,255,0,0
358,546,5567,255,0,0
358,551,5710,255,0,0
359,13,73,255,0,0
359,156,4480,255,0,0
359,316,4191,255,0,0
359,520,4059,255,0,0
360,146,4251,255,0,0
360,504,4218,255,0,0
360,599,7097,255,0,0
361,97,4208,255,0,0
361,112,3970,255,0,0
361,186,4018,255,0,0
361,262,3269,255,0,0
361,295,4433,255,0,0
361,505,4064,255,0,0
361,522,4527,255,0,0
361,571,6572,255,0,0
361,572,6601,255,0,0
361,599,7180,255,0,0
362,17,1849,255,0,0
362,53,2306,255,0,0
362,107,4309,255,0,0
362,111,4021,255,0,0
362,184,4032,255,0,0
362,262,3276,255,0,0
362,284,4117,255,0,0
362,332,5149,255,0,0
362,334,4543,255,0,0
362,351,4697,255,0,0
362,352,4676,255,0,0
362,505,3924,255,0,0
362,536,5149,255,0,0
363,149,4686,255,0,0
363,190,3822,255,0,0
364,42,2121,255,0,0
364,149,4669,255,0,0
365,30,1992,255,0,0
365,290,4465,255,0,0
365,319,5197,255,0,0
366,80,4362,255,0,0
366,91,4591,255,0,0
366,110,4122,255,0,0
366,132,3753,255,0,0
366,197,3840,255,0,0
366,237,3458,255,0,0
366,266,3462,255,0,0
366,323,5249,255,0,0
366,324,5324,255,0,0
366,342,4495,255,0,0
366,536,5240,255,0,0
366,564,6228,255,0,0
366,568,6394,255,0,0
367,48,1915,255,0,0
367,132,3762,255,0,0
367,182,4324,255,0,0
367,227,3222,255,0,0
367,241,3461,255,0,0
367,340,4631,255,0,0
367,342,4654,255,0,0
367,527,4799,255,0,0
368,6,1710,255,0,0
368,130,3918,255,0,0
368,168,4462,255,0,0
368,313,5285,255,0,0
369,209,3821,255,0,0
369,210,3826,255,0,0
369,275,3573,255,0,0
369,283,3639,255,0,0
369,555,5973,255,0,0
369,576,6598,255,0,0
370,18,1881,255,0,0
370,59,3908,255,0,0
370,150,4491,255,0,0
370,512,3931,255,0,0
370,584,6729,255,0,0
371,225,3192,255,0,0
371,285,3707,255,0,0
371,295,4498,255,0,0
371,302,5176,255,0,0
371,323,5339,255,0,0
372,20,1784,255,0,0
372,210,3880,255,0,0
372,243,3545,255,0,0
372,516,4385,255,0,0
372,558,6009,255,0,0
372,590,7062,255,0,0
373,88,4572,255,0,0
373,218,3306,255,0,0
373,285,3768,255,0,0
373,333,5335,255,0,0
374,81,4122,255,0,0
374,113,4004,255,0,0
374,200,3845,255,0,0
374,201,3836,255,0,0
374,263,3457,255,0,0
374,351,5320,255,0,0
374,354,4952,255,0,0
374,361,5428,255,0,0
375,63,2543,255,0,0
375,65,3898,255,0,0
375,112,3998,255,0,0
375,179,3931,255,0,0
376,74,3906,255,0,0
376,110,4229,255,0,0
376,525,4543,255,0,0
376,561,6097,255,0,0
377,101,4366,255,0,0
377,114,4277,255,0,0
377,153,4273,255,0,0
377,172,4323,255,0,0
377,175,4165,255,0,0
377,253,3505,255,0,0
377,313,5253,255,0,0
378,271,4147,255,0,0
378,279,4254,255,0,0
378,536,5225,255,0,0
379,123,3938,255,0,0
379,174,4334,255,0,0
379,365,5117,255,0,0
380,138,3990,255,0,0
380,144,4257,255,0,0
380,246,3642,255,0,0
380,510,3884,255,0,0
380,549,6041,255,0,0
381,163,4463,255,0,0
381,301,5175,255,0,0
381,591,7535,255,0,0
382,41,1739,255,0,0
382,94,4201,255,0,0
382,147,4274,255,0,0
382,198,4145,255,0,0
382,222,3467,255,0,0
382,272,4243,255,0,0
382,314,5086,255,0,0
383,94,4067,255,0,0
383,199,4129,255,0,0
383,337,5657,255,0,0
383,349,5475,255,0,0
383,506,4010,255,0,0
383,534,4772,255,0,0
384,63,2718,255,0,0
384,185,4100,255,0,0
385,68,2970,255,0,0
385,92,2736,255,0,0
385,239,3494,255,0,0
385,243,3613,255,0,0
385,307,5096,255,0,0
385,547,6029,255,0,0
386,119,4446,255,0,0
386,272,4059,255,0,0
387,91,2768,255,0,0
387,173,4236,255,0,0
387,230,3625,255,0,0
387,322,5303,255,0,0
388,68,2941,255,0,0
388,281,4148,255,0,0
388,290,3848,255,0,0
388,292,3830,255,0,0
388,338,5665,255,0,0
388,500,4035,255,0,0
388,544,5814,255,0,0
388,574,6733,255,0,0
389,98,4046,255,0,0
389,124,4176,255,0,0
389,145,4383,255,0,0
389,207,3882,255,0,0
389,223,3748,255,0,0
389,253,3610,255,0,0
389,284,4208,255,0,0
389,526,4726,255,0,0
389,563,6327,255,0,0
390,72,2961,255,0,0
390,207,3888,255,0,0
390,253,3608,255,0,0
390,571,6707,255,0,0
391,43,748,255,0,0
391,94,1949,255,0,0
391,174,4447,255,0,0
391,198,3958,255,0,0
391,328,5439,255,0,0
391,557,6332,255,0,0
392,51,1996,255,0,0
392,159,4652,255,0,0
392,269,3807,255,0,0
392,495,4131,255,0,0
392,509,4692,255,0,0
393,45,582,255,0,0
393,48,1759,255,0,0
393,57,2045,255,0,0
393,75,2853,255,0,0
393,142,4317,255,0,0
393,177,4489,255,0,0
393,356,5875,255,0,0
394,54,2017,255,0,0
394,216,3861,255,0,0
394,234,3752,255,0,0
394,587,7307,255,0,0
394,588,7306,255,0,0
395,102,3985,255,0,0
395,146,4487,255,0,0
395,276,4126,255,0,0
395,304,4865,255,0,0
395,519,4606,255,0,0
396,14,1815,255,0,0
396,36,248,255,0,0
396,251,3735,255,0,0
396,361,5585,255,0,0
396,563,5997,255,0,0
396,572,7121,255,0,0
396,580,7362,255,0,0
397,79,2739,255,0,0
397,251,3489,255,0,0
397,339,5817,255,0,0
397,505,4365,255,0,0
397,580,7410,255,0,0
398,104,4193,255,0,0
398,130,4319,255,0,0
398,183,4349,255,0,0
398,536,3660,255,0,0
398,574,7589,255,0,0
398,595,7297,255,0,0
399,193,4045,255,0,0
399,301,4511,255,0,0
399,485,4196,255,0,0
400,130,4248,255,0,0
400,206,3744,255,0,0
400,235,4038,255,0,0
400,506,4715,255,0,0
400,519,4812,255,0,0
401,104,4288,255,0,0
401,133,4383,255,0,0
401,309,4712,255,0,0
401,366,5311,255,0,0
401,367,5291,255,0,0
401,538,4882,255,0,0
401,562,7469,255,0,0
401,598,7100,255,0,0
402,76,2580,255,0,0
402,210,3830,255,0,0
402,299,3974,255,0,0
402,321,5279,255,0,0
402,355,5691,255,0,0
403,80,2546,255,0,0
403,229,4062,255,0,0
403,299,3771,255,0,0
403,563,7468,255,0,0
404,127,4186,255,0,0
404,156,4699,255,0,0
404,179,4645,255,0,0
404,273,3323,255,0,0
404,286,3621,255,0,0
404,350,5515,255,0,0
404,391,4919,255,0,0
405,54,1717,255,0,0
405,117,4254,255,0,0
405,155,4685,255,0,0
405,168,4789,255,0,0
405,258,3262,255,0,0
405,540,6241,255,0,0
406,175,4569,255,0,0
406,273,3086,255,0,0
406,315,5056,255,0,0
406,372,5178,255,0,0
406,541,6302,255,0,0
406,548,5620,255,0,0
407,317,5253,255,0,0
407,319,5393,255,0,0
407,504,4508,255,0,0
407,558,6558,255,0,0
408,52,565,255,0,0
408,75,2534,255,0,0
408,549,5950,255,0,0
409,15,1748,255,0,0
409,34,1707,255,0,0
409,82,2427,255,0,0
409,107,4255,255,0,0
409,128,4060,255,0,0
409,266,3122,255,0,0
409,343,5638,255,0,0
409,352,5437,255,0,0
410,32,1736,255,0,0
410,109,4222,255,0,0
410,191,4254,255,0,0
410,338,5674,255,0,0
410,528,5097,255,0,0
410,596,7174,255,0,0
410,597,7161,255,0,0
411,72,1730,255,0,0
411,109,4213,255,0,0
411,143,4453,255,0,0
411,233,3892,255,0,0
411,240,3692,255,0,0
411,271,3247,255,0,0
412,99,4060,255,0,0
412,233,3867,255,0,0
412,263,3200,255,0,0
412,293,3395,255,0,0
412,537,5376,255,0,0
412,553,5382,255,0,0
413,237,3646,255,0,0
413,580,7576,255,0,0
414,161,4531,255,0,0
414,204,4249,255,0,0
414,301,3806,255,0,0
414,331,5507,255,0,0
414,503,5127,255,0,0
414,537,6118,255,0,0
415,163,4441,255,0,0
415,181,4561,255,0,0
415,206,4255,255,0,0
415,226,3780,255,0,0
415,328,5415,255,0,0
415,520,5153,255,0,0
415,562,7441,255,0,0
416,140,4682,255,0,0
416,260,3242,255,0,0
416,320,4984,255,0,0
416,509,5340,255,0,0
417,27,1983,255,0,0
417,48,2108,255,0,0
417,184,4515,255,0,0
417,390,5063,255,0,0
417,579,7376,255,0,0
418,6,1777,255,0,0
418,240,3600,255,0,0
418,390,5020,255,0,0
418,554,5703,255,0,0
419,49,2169,255,0,0
419,163,4392,255,0,0
419,219,4017,255,0,0
419,298,3414,255,0,0
419,305,3788,255,0,0
419,321,5050,255,0,0
419,362,5333,255,0,0
419,382,4885,255,0,0
420,128,4024,255,0,0
420,235,3592,255,0,0
420,275,3188,255,0,0
420,291,3217,255,0,0
420,319,5193,255,0,0
420,516,5215,255,0,0
421,195,4533,255,0,0
421,281,2972,255,0,0
421,365,5124,255,0,0
421,374,4989,255,0,0
422,110,3789,255,0,0
422,252,3455,255,0,0
422,338,5439,255,0,0
422,367,5146,255,0,0
422,379,4938,255,0,0
422,433,5223,255,0,0
422,587,7332,255,0,0
423,218,4220,255,0,0
423,540,5801,255,0,0
423,558,7522,255,0,0
424,117,3631,255,0,0
424,283,3031,255,0,0
424,284,3207,255,0,0
424,312,4195,255,0,0
424,432,5360,255,0,0
424,543,5865,255,0,0
424,551,5811,255,0,0
424,569,7798,255,0,0
425,54,1962,255,0,0
425,258,3350,255,0,0
425,259,3330,255,0,0
425,345,5308,255,0,0
425,501,5104,255,0,0
425,513,5442,255,0,0
425,540,5393,255,0,0
426,11,1799,255,0,0
426,118,3630,255,0,0
426,127,3743,255,0,0
426,172,4413,255,0,0
426,174,4482,255,0,0
426,363,5140,255,0,0
426,470,5364,255,0,0
426,519,5597,255,0,0
427,157,4310,255,0,0
427,259,3405,255,0,0
427,401,4944,255,0,0
427,479,4982,255,0,0
427,510,5451,255,0,0
428,141,4494,255,0,0
428,302,4380,255,0,0
428,340,5450,255,0,0
428,549,6761,255,0,0
429,110,3494,255,0,0
429,135,4039,255,0,0
429,150,4727,255,0,0
429,218,4216,255,0,0
429,219,4229,255,0,0
429,246,3720,255,0,0
429,437,5393,255,0,0
430,83,2168,255,0,0
430,258,3393,255,0,0
430,468,5391,255,0,0
431,124,3684,255,0,0
431,147,4128,255,0,0
431,237,3999,255,0,0
431,270,3183,255,0,0
431,317,5152,255,0,0
431,411,4777,255,0,0
432,284,3370,255,0,0
432,317,5182,255,0,0
432,335,5400,255,0,0
432,571,7530,255,0,0
433,15,2919,255,0,0
433,33,2627,255,0,0
433,175,4272,255,0,0
433,278,3155,255,0,0
433,383,4975,255,0,0
433,528,5448,255,0,0
433,586,7475,255,0,0
434,143,3937,255,0,0
434,197,4704,255,0,0
434,200,4708,255,0,0
434,240,3777,255,0,0
434,515,6624,255,0,0
435,104,3556,255,0,0
435,232,4054,255,0,0
435,277,3242,255,0,0
435,519,6686,255,0,0
435,575,8156,255,0,0
436,21,2982,255,0,0
436,207,4507,255,0,0
436,220,4080,255,0,0
436,223,4024,255,0,0
436,381,5173,255,0,0
436,501,6386,255,0,0
436,549,7563,255,0,0
437,23,2955,255,0,0
437,24,2985,255,0,0
437,225,4049,255,0,0
438,178,4205,255,0,0
438,179,4274,255,0,0
438,409,4816,255,0,0
438,528,7000,255,0,0
439,50,1979,255,0,0
439,328,5338,255,0,0
439,329,5283,255,0,0
439,361,4948,255,0,0
439,362,4941,255,0,0
439,521,7081,255,0,0
440,158,4115,255,0,0
440,173,4270,255,0,0
440,209,4532,255,0,0
440,314,4651,255,0,0
440,339,3848,255,0,0
440,350,5298,255,0,0
440,380,4922,255,0,0
440,397,4779,255,0,0
440,494,5976,255,0,0
440,556,7867,255,0,0
440,569,8209,255,0,0
441,294,4023,255,0,0
441,318,5355,255,0,0
441,369,4622,255,0,0
441,466,5303,255,0,0
441,527,7107,255,0,0
441,574,8263,255,0,0
441,590,7631,255,0,0
442,108,3235,255,0,0
442,202,5210,255,0,0
442,228,3894,255,0,0
442,543,7077,255,0,0
442,583,7891,255,0,0
442,596,7738,255,0,0
443,145,3874,255,0,0
443,152,4008,255,0,0
443,180,4409,255,0,0
443,257,3641,255,0,0
443,421,5216,255,0,0
444,145,3874,255,0,0
444,257,3625,255,0,0
444,295,4133,255,0,0
444,331,5286,255,0,0
444,596,7745,255,0,0
445,202,6479,255,0,0
445,236,3563,255,0,0
445,278,3421,255,0,0
445,549,7592,255,0,0
445,591,7895,255,0,0
446,278,3424,255,0,0
446,312,4590,255,0,0
446,359,4919,255,0,0
446,490,6399,255,0,0
446,517,7406,255,0,0
447,250,4214,255,0,0
447,271,6128,255,0,0
447,345,4919,255,0,0
447,498,6399,255,0,0
448,250,5184,255,0,0
448,306,3984,255,0,0
448,570,8119,255,0,0
449,115,3170,255,0,0
449,122,3132,255,0,0
449,151,3991,255,0,0
449,263,5806,255,0,0
450,4,1932,255,0,0
450,229,4533,255,0,0
450,254,6018,255,0,0
450,284,4808,255,0,0
450,552,7455,255,0,0
450,588,7980,255,0,0
451,40,3031,255,0,0
452,140,3770,255,0,0
452,204,6481,255,0,0
452,222,6831,255,0,0
452,236,4753,255,0,0
452,308,3979,255,0,0
452,341,4933,255,0,0
452,484,6359,255,0,0
453,134,3257,255,0,0
453,282,6418,255,0,0
453,366,4672,255,0,0
453,543,7129,255,0,0
454,134,3260,255,0,0
454,169,5632,255,0,0
454,213,6541,255,0,0
454,288,5170,255,0,0
454,302,4207,255,0,0
454,315,4217,255,0,0
454,514,7153,255,0,0
455,20,2977,255,0,0
456,184,6627,255,0,0
456,230,6601,255,0,0
456,302,5971,255,0,0
456,569,8128,255,0,0
457,290,6441,255,0,0
457,475,5826,255,0,0
457,574,8365,255,0,0
458,211,6488,255,0,0
458,321,5321,255,0,0
458,344,5292,255,0,0
458,477,6546,255,0,0
458,504,6529,255,0,0
460,162,5478,255,0,0
460,272,6503,255,0,0
460,338,5147,255,0,0
460,580,8282,255,0,0
461,27,3037,255,0,0
461,111,2526,255,0,0
461,136,3213,255,0,0
461,226,6583,255,0,0
461,311,5970,255,0,0
461,555,7627,255,0,0
462,7,3251,255,0,0
462,252,6261,255,0,0
462,320,6076,255,0,0
462,328,5356,255,0,0
462,586,8167,255,0,0
463,155,3674,255,0,0
463,253,6275,255,0,0
463,312,6437,255,0,0
464,55,3003,255,0,0
464,57,1225,255,0,0
465,111,2444,255,0,0
465,119,2479,255,0,0
465,371,4671,255,0,0
465,422,4801,255,0,0
465,528,7162,255,0,0
466,45,3077,255,0,0
466,353,5242,255,0,0
466,566,7888,255,0,0
467,45,3064,255,0,0
467,46,3065,255,0,0
467,129,2902,255,0,0
467,359,4890,255,0,0
467,365,4677,255,0,0
467,502,6340,255,0,0
467,525,7252,255,0,0
467,586,8254,255,0,0
468,191,6688,255,0,0
468,270,6075,255,0,0
468,331,5892,255,0,0
468,443,5318,255,0,0
469,154,3782,255,0,0
469,165,7404,255,0,0
469,186,7237,255,0,0
469,189,6827,255,0,0
469,291,6326,255,0,0
469,356,5300,255,0,0
469,382,4608,255,0,0
469,535,7141,255,0,0
469,565,7929,255,0,0
470,58,2927,255,0,0
470,226,6108,255,0,0
470,235,6145,255,0,0
470,244,6164,255,0,0
471,40,3119,255,0,0
472,111,2361,255,0,0
472,142,3414,255,0,0
472,239,6031,255,0,0
472,272,6292,255,0,0
472,406,4589,255,0,0
472,516,7100,255,0,0
472,588,7635,255,0,0
473,171,7306,255,0,0
473,179,7272,255,0,0
473,285,6408,255,0,0
473,287,6379,255,0,0
473,289,6031,255,0,0
473,599,7858,255,0,0
474,151,3575,255,0,0
474,271,6274,255,0,0
474,312,6559,255,0,0
474,339,5670,255,0,0
474,433,4842,255,0,0
475,124,2770,255,0,0
475,138,3292,255,0,0
475,155,7104,255,0,0
475,366,4805,255,0,0
475,387,4560,255,0,0
475,421,4602,255,0,0
475,512,6816,255,0,0
475,585,8119,255,0,0
475,588,7962,255,0,0
476,64,2821,255,0,0
476,216,6670,255,0,0
476,350,5452,255,0,0
476,599,7893,255,0,0
477,177,7049,255,0,0
477,205,6309,255,0,0
477,396,4739,255,0,0
477,440,5137,255,0,0
477,449,5160,255,0,0
477,548,7346,255,0,0
477,566,8034,255,0,0
478,66,2834,255,0,0
478,583,8194,255,0,0
479,74,2718,255,0,0
479,135,3114,255,0,0
479,227,6377,255,0,0
479,239,5444,255,0,0
480,193,6523,255,0,0
480,572,8146,255,0,0
481,301,6511,255,0,0
481,341,5652,255,0,0
481,361,5019,255,0,0
481,441,5188,255,0,0
481,478,6403,255,0,0
481,579,8124,255,0,0
482,324,6383,255,0,0
482,365,4631,255,0,0
482,389,4623,255,0,0
482,478,6417,255,0,0
483,52,3020,255,0,0
483,89,2446,255,0,0
483,365,4712,255,0,0
483,560,8040,255,0,0
483,565,8118,255,0,0
484,140,3073,255,0,0
484,464,6075,255,0,0
485,66,2855,255,0,0
485,80,2632,255,0,0
485,112,2474,255,0,0
485,155,7155,255,0,0
485,324,6495,255,0,0
485,461,5369,255,0,0
485,524,6578,255,0,0
485,572,7925,255,0,0
486,322,6393,255,0,0
486,420,4768,255,0,0
486,539,7067,255,0,0
487,80,2579,255,0,0
487,88,2732,255,0,0
487,95,2767,255,0,0
487,316,6324,255,0,0
487,554,7964,255,0,0
488,193,6791,255,0,0
488,309,6423,255,0,0
488,314,6345,255,0,0
488,355,5393,255,0,0
488,383,4647,255,0,0
488,481,6469,255,0,0
488,538,6957,255,0,0
489,119,2599,255,0,0
489,226,6460,255,0,0
489,325,5907,255,0,0
489,336,5672,255,0,0
489,399,4650,255,0,0
489,536,6765,255,0,0
489,540,6722,255,0,0
490,105,2576,255,0,0
490,159,7047,255,0,0
490,167,6923,255,0,0
490,308,5965,255,0,0
490,333,5681,255,0,0
490,345,5489,255,0,0
490,373,4739,255,0,0
490,547,6718,255,0,0
491,88,2923,255,0,0
491,159,7005,255,0,0
491,170,6897,255,0,0
491,226,6474,255,0,0
491,339,5681,255,0,0
491,394,4584,255,0,0
491,414,4823,255,0,0
491,569,7719,255,0,0
491,581,7908,255,0,0
491,582,7956,255,0,0
492,170,6939,255,0,0
492,188,6775,255,0,0
492,205,6652,255,0,0
492,239,6262,255,0,0
493,32,3252,255,0,0
493,108,2554,255,0,0
493,180,6833,255,0,0
493,226,6464,255,0,0
493,402,4423,255,0,0
493,414,4959,255,0,0
494,134,3368,255,0,0
494,187,6774,255,0,0
494,599,8396,255,0,0
495,128,3271,255,0,0
495,210,6632,255,0,0
495,454,5397,255,0,0
495,455,5332,255,0,0
495,552,7500,255,0,0
495,592,8509,255,0,0
496,59,2888,255,0,0
