x,y,z,r,g,b
3,279,3991,0,128,0
3,280,3923,0,128,0
11,414,3189,0,128,0
13,413,3147,0,128,0
14,35,1678,0,128,0
14,190,3735,0,128,0
14,361,3649,0,128,0
14,433,3025,0,128,0
14,467,5085,0,128,0
15,324,3635,0,128,0
15,355,3820,0,128,0
15,400,3130,0,128,0
16,176,4026,0,128,0
16,359,3702,0,128,0
17,107,2318,0,128,0
17,176,4042,0,128,0
17,193,3697,0,128,0
17,214,3423,0,128,0
17,258,4280,0,128,0
17,316,3638,0,128,0
17,348,3996,0,128,0
18,107,2206,0,128,0
19,205,3620,0,128,0
19,530,4864,0,128,0
20,219,3417,0,128,0
20,281,2745,0,128,0
22,161,2588,0,128,0
22,207,3487,0,128,0
22,357,3833,0,128,0
22,443,3096,0,128,0
23,251,3996,0,128,0
23,442,3077,0,128,0
24,244,3888,0,128,0
24,260,4129,0,128,0
24,346,3733,0,128,0
25,258,4140,0,128,0
25,332,3814,0,128,0
25,333,3806,0,128,0
25,335,3898,0,128,0
25,540,4017,0,128,0
27,221,3301,0,128,0
27,226,3308,0,128,0
28,381,3303,0,128,0
29,363,3496,0,128,0
31,363,3355,0,128,0
32,116,2201,0,128,0
32,189,3656,0,128,0
32,342,3584,0,128,0
32,382,3332,0,128,0
32,530,4937,0,128,0
32,544,4833,0,128,0
32,547,4900,0,128,0
32,555,4866,0,128,0
32,584,4646,0,128,0
32,585,4645,0,128,0
33,180,3539,0,128,0
33,189,3549,0,128,0
33,190,3553,0,128,0
33,451,3420,0,128,0
33,469,4937,0,128,0
33,530,5006,0,128,0
35,140,2298,0,128,0
35,467,4858,0,128,0
36,119,2064,0,128,0
36,128,2197,0,128,0
36,215,3191,0,128,0
36,370,3545,0,128,0
36,566,4810,0,128,0
37,180,3601,0,128,0
37,349,3165,0,128,0
37,371,3627,0,128,0
38,156,2441,0,128,0
38,216,3123,0,128,0
38,301,2580,0,128,0
38,359,3247,0,128,0
38,550,4793,0,128,0
39,39,1690,0,128,0
39,143,2318,0,128,0
39,211,3124,0,128,0
40,126,2127,0,128,0
40,165,2444,0,128,0
40,296,2507,0,128,0
41,165,2441,0,128,0
42,108,1729,0,128,0
43,563,4772,0,128,0
43,569,4749,0,128,0
44,141,2336,0,128,0
44,220,2890,0,128,0
46,214,2920,0,128,0
46,526,5298,0,128,0
46,565,4762,0,128,0
47,191,3264,0,128,0
47,227,2643,0,128,0
47,539,4786,0,128,0
48,152,2378,0,128,0
49,130,2115,0,128,0
49,377,3382,0,128,0
50,181,3140,0,128,0
50,346,2753,0,128,0
50,363,3336,0,128,0
51,346,2748,0,128,0
51,521,5101,0,128,0
53,124,1942,0,128,0
53,342,2659,0,128,0
53,468,4754,0,128,0
54,107,2068,0,128,0
54,191,3344,0,128,0
54,218,2856,0,128,0
54,341,2753,0,128,0
54,468,4657,0,128,0
55,101,1942,0,128,0
55,191,3364,0,128,0
55,220,2992,0,128,0
55,446,3927,0,128,0
56,449,3990,0,128,0
57,86,1897,0,128,0
57,87,1888,0,128,0
57,109,1994,0,128,0
57,154,2287,0,128,0
57,165,2252,0,128,0
58,166,2291,0,128,0
58,199,3319,0,128,0
58,208,3220,0,128,0
58,231,2653,0,128,0
59,168,2381,0,128,0
59,199,3368,0,128,0
59,289,2484,0,128,0
59,533,4992,0,128,0
60,33,1685,0,128,0
60,199,3362,0,128,0
62,40,1671,0,128,0
62,107,1967,0,128,0
62,176,2342,0,128,0
63,148,2147,0,128,0
64,513,4899,0,128,0
64,555,5026,0,128,0
65,171,2185,0,128,0
65,513,4902,0,128,0
65,553,5084,0,128,0
65,557,4944,0,128,0
66,328,2756,0,128,0
66,523,4776,0,128,0
66,537,5153,0,128,0
66,553,5098,0,128,0
67,177,2338,0,128,0
67,328,2753,0,128,0
67,536,5167,0,128,0
68,319,2698,0,128,0
68,520,4784,0,128,0
68,533,5243,0,128,0
69,567,5147,0,128,0
70,568,5244,0,128,0
70,569,5277,0,128,0
71,371,3356,0,128,0
71,452,4247,0,128,0
72,53,1759,0,128,0
72,94,1827,0,128,0
72,183,2533,0,128,0
72,450,4295,0,128,0
72,453,4160,0,128,0
73,53,1756,0,128,0
74,171,2174,0,128,0
74,198,2905,0,128,0
75,103,2117,0,128,0
75,310,2552,0,128,0
75,311,2556,0,128,0
76,205,2648,0,128,0
76,522,4933,0,128,0
77,189,2755,0,128,0
77,193,2834,0,128,0
77,437,4458,0,128,0
77,443,4389,0,128,0
78,91,1809,0,128,0
78,469,5006,0,128,0
79,199,2949,0,128,0
79,467,4878,0,128,0
79,522,4873,0,128,0
79,566,5453,0,128,0
80,60,1784,0,128,0
80,267,2527,0,128,0
80,268,2521,0,128,0
81,94,1823,0,128,0
81,194,2738,0,128,0
81,311,2596,0,128,0
81,359,2997,0,128,0
82,359,3000,0,128,0
82,460,4438,0,128,0
82,461,4505,0,128,0
82,542,5246,0,128,0
82,543,5235,0,128,0
82,548,5227,0,128,0
84,430,4411,0,128,0
85,504,4972,0,128,0
85,529,5073,0,128,0
85,546,5218,0,128,0
85,567,5558,0,128,0
86,60,1808,0,128,0
86,320,2960,0,128,0
86,503,4954,0,128,0
86,528,5006,0,128,0
87,93,1926,0,128,0
87,284,2493,0,128,0
87,410,5049,0,128,0
87,480,4875,0,128,0
87,567,5541,0,128,0
88,94,1914,0,128,0
88,200,2647,0,128,0
88,322,2831,0,128,0
88,392,4769,0,128,0
89,306,2644,0,128,0
89,500,4850,0,128,0
89,526,4955,0,128,0
90,402,4975,0,128,0
90,425,4820,0,128,0
90,512,4854,0,128,0
90,516,4932,0,128,0
90,518,4961,0,128,0
91,113,2313,0,128,0
91,287,2505,0,128,0
91,403,4966,0,128,0
91,573,5495,0,128,0
92,135,1925,0,128,0
92,136,2013,0,128,0
92,547,5008,0,128,0
93,64,1887,0,128,0
93,166,2154,0,128,0
93,167,2250,0,128,0
93,291,2546,0,128,0
93,430,4603,0,128,0
93,479,4697,0,128,0
93,578,5226,0,128,0
94,102,2071,0,128,0
94,191,2291,0,128,0
94,268,2485,0,128,0
94,269,2518,0,128,0
95,188,2284,0,128,0
96,110,2163,0,128,0
96,181,2316,0,128,0
96,188,2303,0,128,0
96,470,4262,0,128,0
96,500,4874,0,128,0
97,46,1560,0,128,0
97,109,2126,0,128,0
97,112,2116,0,128,0
97,512,4851,0,128,0
98,44,1553,0,128,0
98,424,4740,0,128,0
98,436,4552,0,128,0
98,570,5136,0,128,0
99,207,2777,0,128,0
99,343,2900,0,128,0
99,383,4924,0,128,0
100,543,5117,0,128,0
101,405,4637,0,128,0
101,406,4650,0,128,0
101,477,4459,0,128,0
101,546,4925,0,128,0
102,170,2266,0,128,0
102,479,4392,0,128,0
102,535,5044,0,128,0
102,580,5110,0,128,0
103,54,1765,0,128,0
103,208,2649,0,128,0
103,314,2834,0,128,0
103,355,3026,0,128,0
103,497,4904,0,128,0
103,533,4994,0,128,0
104,356,3121,0,128,0
104,454,4345,0,128,0
104,560,5386,0,128,0
105,306,2741,0,128,0
105,418,4629,0,128,0
106,478,4280,0,128,0
106,509,4817,0,128,0
106,513,4822,0,128,0
107,333,2845,0,128,0
107,356,3115,0,128,0
107,399,4754,0,128,0
107,410,4599,0,128,0
107,535,4900,0,128,0
107,552,5148,0,128,0
108,36,1512,0,128,0
109,43,1546,0,128,0
109,168,2259,0,128,0
110,168,2259,0,128,0
110,416,4595,0,128,0
110,528,4953,0,128,0
110,556,5234,0,128,0
111,169,2258,0,128,0
111,414,4568,0,128,0
111,418,4604,0,128,0
111,463,4371,0,128,0
111,473,4250,0,128,0
111,522,4955,0,128,0
111,549,5106,0,128,0
111,555,5245,0,128,0
111,568,5367,0,128,0
111,584,5269,0,128,0
112,464,4390,0,128,0
112,496,4561,0,128,0
112,509,5204,0,128,0
114,359,3434,0,128,0
114,435,4293,0,128,0
115,436,4338,0,128,0
116,395,4445,0,128,0
116,412,4635,0,128,0
116,444,4212,0,128,0
116,513,4923,0,128,0
117,178,2355,0,128,0
117,445,4207,0,128,0
117,452,4246,0,128,0
118,337,3028,0,128,0
118,385,4136,0,128,0
118,419,4579,0,128,0
118,427,4525,0,128,0
118,458,4180,0,128,0
118,460,4166,0,128,0
118,467,4194,0,128,0
118,483,4023,0,128,0
119,117,1891,0,128,0
119,385,4170,0,128,0
119,443,4303,0,128,0
120,247,2454,0,128,0
120,371,4084,0,128,0
120,510,4747,0,128,0
121,131,2390,0,128,0
121,458,4202,0,128,0
121,483,4232,0,128,0
122,29,1582,0,128,0
122,176,2379,0,128,0
122,382,4095,0,128,0
122,383,4104,0,128,0
122,585,5351,0,128,0
123,509,4543,0,128,0
123,526,4621,0,128,0
124,131,3388,0,128,0
124,407,4947,0,128,0
124,571,5558,0,128,0
125,246,2499,0,128,0
125,382,4170,0,128,0
125,572,5540,0,128,0
125,582,5325,0,128,0
126,401,4738,0,128,0
126,475,4002,0,128,0
126,520,4470,0,128,0
126,521,4507,0,128,0
127,404,4837,0,128,0
127,420,4650,0,128,0
127,439,4253,0,128,0
127,489,4109,0,128,0
127,534,4553,0,128,0
127,588,5357,0,128,0
129,357,3592,0,128,0
129,381,4001,0,128,0
130,373,4023,0,128,0
131,31,1468,0,128,0
131,436,4417,0,128,0
131,476,4008,0,128,0
131,563,5064,0,128,0
131,565,5074,0,128,0
132,28,462,0,128,0
132,84,1655,0,128,0
133,148,3828,0,128,0
133,230,2685,0,128,0
133,459,4049,0,128,0
134,147,3817,0,128,0
134,401,4518,0,128,0
134,593,5486,0,128,0
135,150,3874,0,128,0
135,272,2505,0,128,0
135,352,3181,0,128,0
135,442,4214,0,128,0
135,489,3882,0,128,0
136,127,4170,0,128,0
136,273,2472,0,128,0
136,365,3932,0,128,0
136,366,3908,0,128,0
136,388,4080,0,128,0
136,401,4381,0,128,0
136,420,4710,0,128,0
136,427,4676,0,128,0
136,472,3853,0,128,0
137,68,1523,0,128,0
137,69,1529,0,128,0
137,231,2722,0,128,0
137,403,4388,0,128,0
137,428,4657,0,128,0
137,431,4528,0,128,0
137,542,4119,0,128,0
138,472,3748,0,128,0
139,124,4116,0,128,0
139,220,3488,0,128,0
139,501,3791,0,128,0
140,454,4273,0,128,0
140,456,4120,0,128,0
141,63,1509,0,128,0
141,454,4223,0,128,0
141,465,3958,0,128,0
141,495,3858,0,128,0
142,489,3931,0,128,0
142,582,5478,0,128,0
143,131,3947,0,128,0
143,166,4275,0,128,0
143,389,3601,0,128,0
144,133,3983,0,128,0
144,167,4243,0,128,0
144,175,4338,0,128,0
144,366,3752,0,128,0
144,521,3906,0,128,0
144,527,3986,0,128,0
144,538,4135,0,128,0
144,555,4520,0,128,0
145,215,3727,0,128,0
145,221,3329,0,128,0
145,521,3899,0,128,0
146,22,250,0,128,0
146,58,1551,0,128,0
146,181,4435,0,128,0
146,367,3664,0,128,0
146,369,3544,0,128,0
146,391,3459,0,128,0
146,453,4185,0,128,0
146,552,4498,0,128,0
146,585,5434,0,128,0
146,586,5446,0,128,0
147,58,1531,0,128,0
147,106,4252,0,128,0
148,166,4295,0,128,0
149,114,4046,0,128,0
149,196,4257,0,128,0
149,227,3023,0,128,0
149,270,2533,0,128,0
149,480,3614,0,128,0
149,542,4199,0,128,0
150,348,3104,0,128,0
150,362,3684,0,128,0
151,127,3851,0,128,0
151,539,4090,0,128,0
152,185,4477,0,128,0
152,192,4455,0,128,0
152,500,3831,0,128,0
153,182,4388,0,128,0
153,265,2587,0,128,0
153,344,2973,0,128,0
153,480,3520,0,128,0
154,61,1508,0,128,0
154,91,4421,0,128,0
154,318,2990,0,128,0
154,348,2997,0,128,0
154,376,3201,0,128,0
155,145,3862,0,128,0
155,232,3232,0,128,0
156,24,1173,0,128,0
156,100,4330,0,128,0
156,550,4469,0,128,0
157,69,2027,0,128,0
157,199,4453,0,128,0
157,457,3914,0,128,0
157,468,3770,0,128,0
157,502,3573,0,128,0
157,549,4454,0,128,0
158,345,2962,0,128,0
158,574,5123,0,128,0
159,54,1477,0,128,0
159,110,4265,0,128,0
159,154,3917,0,128,0
159,161,4046,0,128,0
159,201,4206,0,128,0
160,53,1462,0,128,0
160,94,4546,0,128,0
160,376,3202,0,128,0
160,518,3967,0,128,0
161,216,3747,0,128,0
161,329,2904,0,128,0
161,468,3799,0,128,0
161,570,5011,0,128,0
161,580,5280,0,128,0
162,148,3906,0,128,0
162,215,3755,0,128,0
162,278,2675,0,128,0
162,385,3359,0,128,0
162,495,3582,0,128,0
162,502,3639,0,128,0
162,527,4009,0,128,0
163,130,3990,0,128,0
163,309,2905,0,128,0
163,328,2904,0,128,0
163,462,3849,0,128,0
163,518,3977,0,128,0
163,548,4567,0,128,0
164,20,1539,0,128,0
164,311,2862,0,128,0
164,378,3253,0,128,0
164,468,3768,0,128,0
164,533,4151,0,128,0
165,35,906,0,128,0
165,63,2015,0,128,0
165,111,4177,0,128,0
166,69,2117,0,128,0
166,128,3855,0,128,0
166,150,3883,0,128,0
166,178,4462,0,128,0
166,272,2729,0,128,0
166,398,3445,0,128,0
166,557,4874,0,128,0
167,6,1430,0,128,0
167,52,1705,0,128,0
167,69,2051,0,128,0
167,396,3419,0,128,0
167,398,3401,0,128,0
167,573,5256,0,128,0
168,58,1809,0,128,0
168,121,3986,0,128,0
168,344,2894,0,128,0
168,492,3587,0,128,0
168,494,3596,0,128,0
169,90,4251,0,128,0
169,93,4222,0,128,0
169,143,3928,0,128,0
169,175,4391,0,128,0
169,320,2856,0,128,0
169,323,2895,0,128,0
170,179,4394,0,128,0
170,344,2848,0,128,0
170,375,3287,0,128,0
171,141,3762,0,128,0
171,185,4228,0,128,0
172,81,4262,0,128,0
172,273,2817,0,128,0
172,373,3176,0,128,0
172,398,3229,0,128,0
172,560,4912,0,128,0
172,564,4866,0,128,0
173,49,1806,0,128,0
173,78,4233,0,128,0
173,121,3828,0,128,0
173,371,3186,0,128,0
174,45,1698,0,128,0
174,99,4202,0,128,0
174,365,2990,0,128,0
174,573,5210,0,128,0
175,99,4199,0,128,0
175,391,3180,0,128,0
175,514,3930,0,128,0
175,533,4378,0,128,0
175,542,4592,0,128,0
175,552,4663,0,128,0
176,50,1754,0,128,0
176,108,4356,0,128,0
176,112,4267,0,128,0
176,139,3738,0,128,0
176,189,3747,0,128,0
176,225,3785,0,128,0
176,327,2838,0,128,0
176,349,2877,0,128,0
177,125,3638,0,128,0
177,188,3685,0,128,0
177,220,3822,0,128,0
177,326,2845,0,128,0
177,349,2899,0,128,0
177,352,2872,0,128,0
177,476,3667,0,128,0
177,485,3701,0,128,0
177,499,3808,0,128,0
177,540,4527,0,128,0
178,221,3785,0,128,0
178,476,3707,0,128,0
179,273,2740,0,128,0
179,319,2905,0,128,0
180,474,3772,0,128,0
180,534,4410,0,128,0
181,17,2036,0,128,0
181,96,3885,0,128,0
181,297,2945,0,128,0
181,300,3011,0,128,0
181,516,4137,0,128,0
181,556,4502,0,128,0
182,136,3597,0,128,0
182,293,3047,0,128,0
182,576,5266,0,128,0
183,17,2082,0,128,0
183,273,2747,0,128,0
183,508,3913,0,128,0
183,523,4253,0,128,0
183,530,4382,0,128,0
183,576,5267,0,128,0
183,584,5358,0,128,0
184,186,3608,0,128,0
184,279,2906,0,128,0
184,505,3878,0,128,0
184,507,3915,0,128,0
185,67,3085,0,128,0
185,168,3994,0,128,0
185,231,3967,0,128,0
185,287,2998,0,128,0
185,343,2883,0,128,0
185,381,3090,0,128,0
185,461,3905,0,128,0
185,469,3894,0,128,0
186,92,4049,0,128,0
186,119,3725,0,128,0
186,121,3562,0,128,0
186,482,3991,0,128,0
186,531,4433,0,128,0
187,95,4051,0,128,0
187,155,4114,0,128,0
187,232,4048,0,128,0
187,299,3077,0,128,0
187,351,2961,0,128,0
187,374,3108,0,128,0
188,78,4156,0,128,0
188,83,4273,0,128,0
188,94,4057,0,128,0
188,101,4052,0,128,0
188,350,2975,0,128,0
188,529,4579,0,128,0
189,356,2982,0,128,0
189,488,3983,0,128,0
189,548,4192,0,128,0
190,58,4495,0,128,0
190,107,3781,0,128,0
190,115,3856,0,128,0
190,208,3484,0,128,0
190,211,3635,0,128,0
190,581,5173,0,128,0
191,95,4045,0,128,0
191,202,3415,0,128,0
191,359,2950,0,128,0
191,546,4173,0,128,0
192,75,4028,0,128,0
192,243,3589,0,128,0
192,343,2892,0,128,0
192,405,3306,0,128,0
193,110,3788,0,128,0
193,248,3376,0,128,0
193,403,3308,0,128,0
193,573,4918,0,128,0
194,393,3300,0,128,0
194,554,4182,0,128,0
194,563,4541,0,128,0
195,193,3286,0,128,0
195,393,3203,0,128,0
196,57,4463,0,128,0
196,271,3102,0,128,0
196,459,4124,0,128,0
197,110,3753,0,128,0
197,202,3414,0,128,0
197,269,3158,0,128,0
197,459,4128,0,128,0
197,488,3986,0,128,0
197,537,4586,0,128,0
198,244,3224,0,128,0
198,523,4506,0,128,0
198,537,4584,0,128,0
199,97,3918,0,128,0
199,213,3704,0,128,0
199,471,4138,0,128,0
199,507,4044,0,128,0
199,531,4628,0,128,0
199,537,4580,0,128,0
199,571,4891,0,128,0
200,191,3400,0,128,0
200,512,4148,0,128,0
201,473,4141,0,128,0
201,475,4155,0,128,0
202,25,5420,0,128,0
202,122,3512,0,128,0
202,249,3095,0,128,0
203,39,4553,0,128,0
203,43,4564,0,128,0
203,49,4537,0,128,0
203,72,4072,0,128,0
203,76,4006,0,128,0
203,92,3660,0,128,0
203,132,3322,0,128,0
203,261,3062,0,128,0
203,270,3356,0,128,0
203,501,4123,0,128,0
203,522,4340,0,128,0
204,35,4708,0,128,0
204,60,4216,0,128,0
204,126,3247,0,128,0
204,156,3041,0,128,0
204,203,3233,0,128,0
204,262,3058,0,128,0
204,394,3310,0,128,0
204,491,4249,0,128,0
205,67,4262,0,128,0
205,275,2906,0,128,0
205,390,3189,0,128,0
205,495,4143,0,128,0
205,501,4124,0,128,0
206,151,3045,0,128,0
206,204,3190,0,128,0
206,545,3892,0,128,0
207,344,2925,0,128,0
207,345,2912,0,128,0
207,502,4248,0,128,0
208,247,3029,0,128,0
209,53,4326,0,128,0
209,88,3723,0,128,0
209,159,2909,0,128,0
209,558,4153,0,128,0
210,90,3677,0,128,0
210,105,3655,0,128,0
210,472,4236,0,128,0
210,492,4226,0,128,0
210,511,4179,0,128,0
210,513,4169,0,128,0
210,586,5279,0,128,0
211,69,4077,0,128,0
211,310,3080,0,128,0
211,312,2972,0,128,0
211,404,3330,0,128,0
211,407,3429,0,128,0
212,24,5420,0,128,0
212,105,3614,0,128,0
212,120,3631,0,128,0
212,199,2966,0,128,0
212,319,2887,0,128,0
212,449,3957,0,128,0
212,450,3950,0,128,0
213,23,5520,0,128,0
213,35,4995,0,128,0
213,69,4046,0,128,0
213,135,3093,0,128,0
213,161,2857,0,128,0
213,224,2908,0,128,0
213,542,3823,0,128,0
214,193,2973,0,128,0
214,389,3044,0,128,0
214,563,4078,0,128,0
215,210,2995,0,128,0
215,523,4256,0,128,0
216,172,2920,0,128,0
216,219,2839,0,128,0
216,518,4293,0,128,0
217,520,4283,0,128,0
218,97,3547,0,128,0
218,136,2956,0,128,0
218,149,2906,0,128,0
218,480,4462,0,128,0
218,482,4505,0,128,0
218,512,4354,0,128,0
218,552,3979,0,128,0
219,53,4615,0,128,0
219,178,2904,0,128,0
219,398,3236,0,128,0
219,402,3337,0,128,0
219,589,5160,0,128,0
220,12,5127,0,128,0
220,86,3910,0,128,0
220,169,2958,0,128,0
220,189,2821,0,128,0
220,321,2948,0,128,0
220,556,4013,0,128,0
221,16,5301,0,128,0
221,59,4535,0,128,0
221,388,3139,0,128,0
221,448,3839,0,128,0
221,467,4529,0,128,0
221,469,4515,0,128,0
221,562,4081,0,128,0
221,581,4643,0,128,0
221,582,4607,0,128,0
222,35,4954,0,128,0
222,528,3953,0,128,0
223,37,4823,0,128,0
223,187,2774,0,128,0
223,310,2952,0,128,0
223,311,2963,0,128,0
223,549,3970,0,128,0
224,110,3180,0,128,0
224,551,4014,0,128,0
224,568,4289,0,128,0
225,113,3238,0,128,0
225,272,2834,0,128,0
225,327,2944,0,128,0
225,466,4504,0,128,0
225,508,4544,0,128,0
226,80,3953,0,128,0
226,138,2804,0,128,0
227,54,4846,0,128,0
227,81,3952,0,128,0
227,147,2867,0,128,0
227,541,3872,0,128,0
228,41,4745,0,128,0
228,78,3961,0,128,0
228,109,3380,0,128,0
228,128,2938,0,128,0
228,129,2922,0,128,0
230,164,2762,0,128,0
230,185,2780,0,128,0
231,116,3341,0,128,0
231,433,3540,0,128,0
231,466,4465,0,128,0
232,35,4733,0,128,0
232,39,4797,0,128,0
232,141,2707,0,128,0
232,147,2703,0,128,0
232,445,3853,0,128,0
232,465,4448,0,128,0
232,529,4120,0,128,0
233,17,5226,0,128,0
233,61,4382,0,128,0
233,173,2685,0,128,0
233,386,3306,0,128,0
234,13,5222,0,128,0
234,106,3582,0,128,0
234,578,4809,0,128,0
235,63,4429,0,128,0
235,68,4306,0,128,0
235,91,3787,0,128,0
235,374,3167,0,128,0
235,535,4018,0,128,0
235,550,4071,0,128,0
236,159,2556,0,128,0
236,437,3725,0,128,0
236,568,4619,0,128,0
236,570,4691,0,128,0
236,572,4811,0,128,0
236,587,5059,0,128,0
237,127,2838,0,128,0
238,101,3751,0,128,0
238,319,2978,0,128,0
238,433,3500,0,128,0
239,22,5008,0,128,0
239,31,4799,0,128,0
239,42,4717,0,128,0
239,195,2647,0,128,0
239,318,2973,0,128,0
239,526,4171,0,128,0
240,559,4216,0,128,0
241,93,3766,0,128,0
241,97,3783,0,128,0
241,195,2601,0,128,0
241,527,4177,0,128,0
241,559,4195,0,128,0
242,107,3508,0,128,0
242,353,3294,0,128,0
242,581,5461,0,128,0
243,515,4365,0,128,0
243,534,4387,0,128,0
243,588,4979,0,128,0
244,61,4328,0,128,0
244,73,4023,0,128,0
244,185,2722,0,128,0
244,588,5125,0,128,0
245,114,3267,0,128,0
245,144,2688,0,128,0
245,543,4228,0,128,0
246,178,2618,0,128,0
246,335,3056,0,128,0
246,423,3342,0,128,0
247,49,4490,0,128,0
247,50,4486,0,128,0
247,88,3643,0,128,0
247,237,2542,0,128,0
247,344,3441,0,128,0
247,351,3264,0,128,0
248,170,2591,0,128,0
248,193,2726,0,128,0
248,351,3212,0,128,0
248,547,4359,0,128,0
248,588,5200,0,128,0
249,12,5057,0,128,0
249,158,2391,0,128,0
249,194,2775,0,128,0
249,336,3109,0,128,0
250,82,3812,0,128,0
250,118,3128,0,128,0
250,218,2808,0,128,0
250,336,3174,0,128,0
250,342,3242,0,128,0
250,573,5922,0,128,0
251,27,4801,0,128,0
251,63,4234,0,128,0
252,20,5033,0,128,0
252,78,3744,0,128,0
252,89,3737,0,128,0
252,90,3750,0,128,0
252,345,3245,0,128,0
252,360,3303,0,128,0
253,88,3749,0,128,0
253,176,2674,0,128,0
253,252,2945,0,128,0
253,395,3337,0,128,0
253,396,3340,0,128,0
254,16,5164,0,128,0
254,17,5165,0,128,0
254,142,2434,0,128,0
254,173,2657,0,128,0
254,364,3311,0,128,0
254,508,4708,0,128,0
255,201,2719,0,128,0
255,569,5809,0,128,0
256,48,4575,0,128,0
256,49,4573,0,128,0
256,152,2423,0,128,0
256,196,2601,0,128,0
256,207,2727,0,128,0
257,31,4867,0,128,0
257,145,2500,0,128,0
257,172,2497,0,128,0
257,583,5261,0,128,0
258,108,3308,0,128,0
258,109,3142,0,128,0
258,111,3153,0,128,0
258,120,2944,0,128,0
258,138,2660,0,128,0
258,162,2361,0,128,0
258,509,4503,0,128,0
259,42,4627,0,128,0
259,135,2672,0,128,0
259,145,2478,0,128,0
259,176,2478,0,128,0
259,527,4859,0,128,0
260,17,4951,0,128,0
260,84,3584,0,128,0
260,513,4851,0,128,0
260,569,5456,0,128,0
261,171,2518,0,128,0
261,191,2556,0,128,0
261,318,3030,0,128,0
261,319,3065,0,128,0
261,327,3213,0,128,0
262,109,3128,0,128,0
262,523,4855,0,128,0
263,129,2678,0,128,0
264,115,3096,0,128,0
264,145,2462,0,128,0
265,154,2250,0,128,0
265,530,4924,0,128,0
265,549,5255,0,128,0
265,573,5239,0,128,0
266,47,4507,0,128,0
266,126,2670,0,128,0
266,258,2858,0,128,0
267,79,3544,0,128,0
267,132,2544,0,128,0
267,524,4690,0,128,0
267,541,5414,0,128,0
268,68,3718,0,128,0
268,100,3141,0,128,0
268,191,2592,0,128,0
269,81,3469,0,128,0
269,96,3193,0,128,0
269,183,2538,0,128,0
269,327,3166,0,128,0
269,348,3246,0,128,0
269,571,5043,0,128,0
269,582,5459,0,128,0
269,583,5448,0,128,0
271,91,3361,0,128,0
271,133,2683,0,128,0
271,158,2297,0,128,0
271,159,2292,0,128,0
271,162,2358,0,128,0
271,357,3423,0,128,0
271,508,4206,0,128,0
272,67,3847,0,128,0
272,166,2253,0,128,0
272,569,5081,0,128,0
272,584,5362,0,128,0
272,590,5318,0,128,0
273,46,4338,0,128,0
273,68,3779,0,128,0
273,139,2570,0,128,0
273,199,2454,0,128,0
273,205,2554,0,128,0
273,341,3100,0,128,0
273,525,4741,0,128,0
273,573,4990,0,128,0
274,53,4279,0,128,0
274,99,3253,0,128,0
274,311,3104,0,128,0
274,350,3257,0,128,0
275,5,4947,0,128,0
275,311,3099,0,128,0
275,333,3025,0,128,0
275,349,3259,0,128,0
275,559,5072,0,128,0
276,205,2365,0,128,0
276,508,4166,0,128,0
277,176,2408,0,128,0
277,318,3087,0,128,0
277,544,5559,0,128,0
278,189,2449,0,128,0
278,560,4912,0,128,0
279,333,3008,0,128,0
280,186,2423,0,128,0
281,101,3337,0,128,0
281,103,3306,0,128,0
281,127,2969,0,128,0
281,174,2441,0,128,0
281,206,2351,0,128,0
281,327,3028,0,128,0
281,352,3474,0,128,0
281,353,3453,0,128,0
282,101,3366,0,128,0
282,530,4450,0,128,0
282,555,4841,0,128,0
283,53,4435,0,128,0
283,61,4120,0,128,0
283,207,2354,0,128,0
283,511,4180,0,128,0
284,116,3150,0,128,0
284,181,2475,0,128,0
284,547,5265,0,128,0
284,590,5367,0,128,0
285,13,4908,0,128,0
285,53,4433,0,128,0
285,128,2715,0,128,0
285,332,3276,0,128,0
285,520,4482,0,128,0
285,545,5271,0,128,0
285,571,4966,0,128,0
286,6,4979,0,128,0
286,120,2935,0,128,0
286,374,3365,0,128,0
286,556,4784,0,128,0
287,31,4769,0,128,0
287,94,3872,0,128,0
287,152,2560,0,128,0
287,188,2363,0,128,0
287,298,2955,0,128,0
287,378,3346,0,128,0
287,568,4918,0,128,0
288,121,2849,0,128,0
288,136,2541,0,128,0
288,298,3032,0,128,0
289,92,3917,0,128,0
289,121,2840,0,128,0
289,147,2558,0,128,0
289,167,2524,0,128,0
290,290,2984,0,128,0
290,534,4264,0,128,0
291,172,2557,0,128,0
291,198,2510,0,128,0
292,50,4427,0,128,0
292,138,2737,0,128,0
292,195,2407,0,128,0
292,260,2715,0,128,0
292,268,2927,0,128,0
292,276,2805,0,128,0
292,284,3020,0,128,0
292,320,3045,0,128,0
292,528,4267,0,128,0
293,161,2652,0,128,0
293,268,2913,0,128,0
293,320,3047,0,128,0
294,197,2516,0,128,0
294,535,4213,0,128,0
295,88,4210,0,128,0
295,147,2651,0,128,0
295,158,2707,0,128,0
295,159,2720,0,128,0
295,188,2384,0,128,0
295,260,2712,0,128,0
295,345,3452,0,128,0
295,535,4248,0,128,0
296,84,4201,0,128,0
296,205,2582,0,128,0
297,33,4621,0,128,0
297,51,4515,0,128,0
297,71,4342,0,128,0
297,221,2486,0,128,0
298,49,4629,0,128,0
298,53,4521,0,128,0
299,29,4882,0,128,0
299,346,3283,0,128,0
300,23,4872,0,128,0
300,152,2738,0,128,0
300,232,2330,0,128,0
300,233,2323,0,128,0
300,347,3285,0,128,0
300,508,3922,0,128,0
301,137,2760,0,128,0
301,181,2517,0,128,0
301,209,2624,0,128,0
301,223,2500,0,128,0
301,229,2413,0,128,0
301,260,2684,0,128,0
301,573,4543,0,128,0
301,585,5018,0,128,0
302,56,4525,0,128,0
302,62,4459,0,128,0
302,66,4438,0,128,0
302,90,4395,0,128,0
302,162,2712,0,128,0
302,178,2465,0,128,0
302,365,3335,0,128,0
302,558,4134,0,128,0
303,20,4881,0,128,0
303,119,3104,0,128,0
303,255,2624,0,128,0
303,516,3746,0,128,0
303,554,4067,0,128,0
304,183,2526,0,128,0
304,257,2648,0,128,0
304,301,3502,0,128,0
304,515,3736,0,128,0
304,556,4062,0,128,0
305,70,4354,0,128,0
305,108,3767,0,128,0
305,342,3473,0,128,0
305,344,3428,0,128,0
305,515,3728,0,128,0
306,9,4778,0,128,0
306,82,4271,0,128,0
306,190,2445,0,128,0
306,566,4253,0,128,0
306,574,4355,0,128,0
307,43,4525,0,128,0
307,125,3166,0,128,0
307,206,2834,0,128,0
307,260,2617,0,128,0
307,539,4157,0,128,0
308,51,4375,0,128,0
308,86,4404,0,128,0
308,95,4418,0,128,0
308,131,2867,0,128,0
309,108,3889,0,128,0
309,120,3159,0,128,0
309,131,2942,0,128,0
309,316,4246,0,128,0
310,87,4305,0,128,0
310,238,2768,0,128,0
310,239,2757,0,128,0
310,501,3723,0,128,0
311,143,2806,0,128,0
311,286,3501,0,128,0
311,299,3712,0,128,0
312,121,3203,0,128,0
312,167,2466,0,128,0
312,284,3380,0,128,0
312,313,4158,0,128,0
313,167,2467,0,128,0
313,287,3424,0,128,0
314,54,4308,0,128,0
314,106,4079,0,128,0
314,108,3916,0,128,0
314,168,2468,0,128,0
314,232,2493,0,128,0
314,267,2694,0,128,0
314,277,2887,0,128,0
315,42,4593,0,128,0
315,81,4046,0,128,0
315,148,3051,0,128,0
315,175,2318,0,128,0
315,214,2806,0,128,0
316,23,4635,0,128,0
316,29,4645,0,128,0
316,62,4192,0,128,0
316,202,2818,0,128,0
316,210,2824,0,128,0
316,278,3036,0,128,0
317,23,4615,0,128,0
317,139,2941,0,128,0
317,159,2878,0,128,0
317,195,2464,0,128,0
317,251,2862,0,128,0
317,320,4164,0,128,0
318,150,3055,0,128,0
319,22,4530,0,128,0
319,61,4217,0,128,0
319,118,3425,0,128,0
319,335,4295,0,128,0
320,141,2965,0,128,0
320,178,2314,0,128,0
320,208,2789,0,128,0
320,251,2880,0,128,0
320,323,4044,0,128,0
321,261,3150,0,128,0
321,308,3859,0,128,0
321,311,4053,0,128,0
321,325,4195,0,128,0
322,102,3896,0,128,0
322,184,2376,0,128,0
322,261,3171,0,128,0
323,203,2541,0,128,0
323,353,4413,0,128,0
324,231,2615,0,128,0
324,291,3162,0,128,0
325,226,2728,0,128,0
325,331,4200,0,128,0
325,346,4542,0,128,0
325,547,5422,0,128,0
326,59,4261,0,128,0
326,89,3820,0,128,0
326,98,3920,0,128,0
326,121,3308,0,128,0
326,206,2507,0,128,0
326,231,2662,0,128,0
326,559,5647,0,128,0
326,584,5911,0,128,0
326,585,5911,0,128,0
327,231,2705,0,128,0
328,9,4333,0,128,0
328,121,3320,0,128,0
328,191,2574,0,128,0
328,193,2567,0,128,0
328,353,4555,0,128,0
329,66,4166,0,128,0
329,71,4106,0,128,0
329,129,3280,0,128,0
329,200,2578,0,128,0
329,245,2763,0,128,0
329,267,3103,0,128,0
329,275,3362,0,128,0
330,139,3138,0,128,0
330,311,3696,0,128,0
331,79,4220,0,128,0
331,226,2785,0,128,0
332,99,3821,0,128,0
332,258,3108,0,128,0
333,15,4634,0,128,0
333,85,4154,0,128,0
333,111,3559,0,128,0
333,277,3507,0,128,0
334,146,3206,0,128,0
334,264,3160,0,128,0
334,285,3088,0,128,0
334,589,6356,0,128,0
335,120,3391,0,128,0
335,211,2744,0,128,0
335,283,3034,0,128,0
335,339,4234,0,128,0
335,571,5706,0,128,0
335,592,6271,0,128,0
336,122,3435,0,128,0
336,212,2742,0,128,0
336,221,2858,0,128,0
336,250,2843,0,128,0
336,307,3554,0,128,0
336,346,4430,0,128,0
336,541,5279,0,128,0
336,556,5381,0,128,0
336,577,5966,0,128,0
337,122,3411,0,128,0
337,221,2862,0,128,0
337,296,3388,0,128,0
337,548,5312,0,128,0
337,579,5971,0,128,0
338,18,4556,0,128,0
338,272,3236,0,128,0
338,296,3377,0,128,0
339,28,5012,0,128,0
339,142,3231,0,128,0
339,143,3145,0,128,0
339,579,6065,0,128,0
340,28,5019,0,128,0
340,125,3365,0,128,0
340,242,2859,0,128,0
340,311,3844,0,128,0
340,325,3979,0,128,0
340,534,5024,0,128,0
341,319,3718,0,128,0
341,481,3783,0,128,0
342,181,4062,0,128,0
342,290,3140,0,128,0
342,469,3704,0,128,0
342,481,3832,0,128,0
342,539,5048,0,128,0
343,196,3446,0,128,0
343,268,3040,0,128,0
344,200,3322,0,128,0
344,221,2879,0,128,0
344,307,4175,0,128,0
344,308,4132,0,128,0
344,558,5440,0,128,0
345,176,3959,0,128,0
345,319,4013,0,128,0
345,339,4311,0,128,0
345,520,4686,0,128,0
346,195,3497,0,128,0
346,290,3227,0,128,0
346,351,4352,0,128,0
346,505,4120,0,128,0
346,519,4578,0,128,0
347,44,5046,0,128,0
347,50,4692,0,128,0
347,135,3516,0,128,0
347,206,3269,0,128,0
347,267,2955,0,128,0
347,327,3962,0,128,0
348,221,2873,0,128,0
349,170,3990,0,128,0
349,206,3449,0,128,0
349,231,2926,0,128,0
350,65,4346,0,128,0
350,66,4350,0,128,0
350,89,3992,0,128,0
350,100,3806,0,128,0
350,155,4288,0,128,0
350,246,2984,0,128,0
350,286,3209,0,128,0
351,58,4410,0,128,0
351,89,3958,0,128,0
351,156,4263,0,128,0
351,576,6319,0,128,0
352,116,3598,0,128,0
352,177,3980,0,128,0
352,238,3210,0,128,0
352,249,3085,0,128,0
352,252,3081,0,128,0
352,264,3104,0,128,0
352,334,4139,0,128,0
352,336,4213,0,128,0
352,574,6342,0,128,0
353,264,3183,0,128,0
353,557,5787,0,128,0
353,591,6609,0,128,0
354,84,3982,0,128,0
354,536,5137,0,128,0
355,64,4304,0,128,0
355,270,3213,0,128,0
355,519,4518,0,128,0
356,70,4240,0,128,0
356,78,4037,0,128,0
356,495,3857,0,128,0
356,496,3858,0,128,0
356,505,4280,0,128,0
356,506,4294,0,128,0
356,519,4412,0,128,0
357,99,3887,0,128,0
357,118,3652,0,128,0
357,276,3227,0,128,0
357,298,4331,0,128,0
357,314,4180,0,128,0
357,552,5752,0,128,0
358,140,4045,0,128,0
358,573,6414,0,128,0
359,155,4469,0,128,0
359,183,4083,0,128,0
359,231,3286,0,128,0
360,103,4269,0,128,0
360,236,3316,0,128,0
360,544,5299,0,128,0
361,50,2291,0,128,0
361,150,4689,0,128,0
361,151,4673,0,128,0
361,163,4403,0,128,0
361,185,4022,0,128,0
361,192,3964,0,128,0
361,354,4540,0,128,0
362,78,4268,0,128,0
362,95,4162,0,128,0
362,134,3778,0,128,0
362,185,4051,0,128,0
362,293,4596,0,128,0
362,551,5773,0,128,0
363,127,3691,0,128,0
363,193,3918,0,128,0
363,351,4690,0,128,0
363,352,4683,0,128,0
363,523,4628,0,128,0
363,532,5124,0,128,0
364,44,2010,0,128,0
364,165,4441,0,128,0
364,227,3160,0,128,0
364,292,4607,0,128,0
364,506,3876,0,128,0
364,507,4009,0,128,0
364,587,6872,0,128,0
365,29,1944,0,128,0
365,109,4129,0,128,0
365,110,4105,0,128,0
365,131,3735,0,128,0
365,211,3841,0,128,0
365,589,6903,0,128,0
366,293,4551,0,128,0
367,16,1914,0,128,0
367,536,5318,0,128,0
368,17,1911,0,128,0
368,242,3404,0,128,0
368,560,6218,0,128,0
369,80,4363,0,128,0
369,90,4635,0,128,0
369,130,3926,0,128,0
369,152,4518,0,128,0
369,232,3178,0,128,0
369,254,3505,0,128,0
369,272,3512,0,128,0
370,169,4351,0,128,0
370,224,3226,0,128,0
371,78,4298,0,128,0
371,111,4070,0,128,0
371,200,3880,0,128,0
371,207,3919,0,128,0
371,563,6180,0,128,0
372,178,4147,0,128,0
372,222,3195,0,128,0
372,517,4404,0,128,0
372,524,4438,0,128,0
373,209,3930,0,128,0
373,523,4435,0,128,0
373,579,6654,0,128,0
373,583,6651,0,128,0
374,202,3805,0,128,0
374,220,3377,0,128,0
374,269,3650,0,128,0
374,334,5322,0,128,0
375,116,4102,0,128,0
375,130,3935,0,128,0
375,268,3623,0,128,0
375,592,7113,0,128,0
376,47,566,0,128,0
376,89,4492,0,128,0
376,151,4202,0,128,0
376,152,4265,0,128,0
376,280,4032,0,128,0
376,351,5433,0,128,0
377,102,4393,0,128,0
377,129,3950,0,128,0
377,245,3575,0,128,0
378,116,4245,0,128,0
379,90,4326,0,128,0
379,116,4280,0,128,0
379,204,3907,0,128,0
379,241,3676,0,128,0
379,311,5250,0,128,0
379,312,5252,0,128,0
380,89,4044,0,128,0
380,172,4334,0,128,0
380,200,4037,0,128,0
380,527,4623,0,128,0
381,147,4257,0,128,0
381,160,4428,0,128,0
381,165,4435,0,128,0
381,174,4332,0,128,0
381,274,4229,0,128,0
381,279,4300,0,128,0
382,252,3528,0,128,0
383,147,4286,0,128,0
383,319,5099,0,128,0
383,528,4651,0,128,0
383,560,6221,0,128,0
384,251,3618,0,128,0
384,272,4213,0,128,0
385,120,4413,0,128,0
385,199,4044,0,128,0
385,204,3849,0,128,0
385,344,5660,0,128,0
386,226,3645,0,128,0
386,353,5797,0,128,0
387,246,3690,0,128,0
387,272,4045,0,128,0
387,281,4264,0,128,0
387,291,3840,0,128,0
387,293,3848,0,128,0
387,502,4003,0,128,0
387,527,4724,0,128,0
388,70,2948,0,128,0
388,166,4530,0,128,0
388,173,4238,0,128,0
388,233,3583,0,128,0
388,291,3842,0,128,0
389,69,2933,0,128,0
389,591,7405,0,128,0
390,232,3616,0,128,0
390,282,4156,0,128,0
390,337,5666,0,128,0
391,220,3861,0,128,0
392,77,3030,0,128,0
392,116,4467,0,128,0
392,142,4309,0,128,0
392,256,3584,0,128,0
392,326,5322,0,128,0
394,210,3757,0,128,0
394,277,4148,0,128,0
394,337,5775,0,128,0
394,359,5785,0,128,0
394,511,4675,0,128,0
394,522,4712,0,128,0
394,538,4863,0,128,0
394,589,7306,0,128,0
395,147,4397,0,128,0
395,180,4576,0,128,0
395,326,5193,0,128,0
395,500,4146,0,128,0
395,590,7319,0,128,0
396,130,4518,0,128,0
396,195,3992,0,128,0
396,207,3892,0,128,0
396,234,3845,0,128,0
396,253,3467,0,128,0
396,506,4502,0,128,0
396,579,7343,0,128,0
396,581,7395,0,128,0
397,77,2756,0,128,0
397,78,2738,0,128,0
397,106,4572,0,128,0
397,134,4374,0,128,0
397,305,4816,0,128,0
398,106,4557,0,128,0
398,206,3870,0,128,0
398,305,4807,0,128,0
398,579,7450,0,128,0
399,188,4333,0,128,0
399,253,3448,0,128,0
399,305,4744,0,128,0
399,341,5794,0,128,0
399,360,5626,0,128,0
399,518,4799,0,128,0
400,132,4293,0,128,0
400,507,4710,0,128,0
400,578,7513,0,128,0
401,16,1826,0,128,0
402,44,2040,0,128,0
402,80,2548,0,128,0
402,254,3484,0,128,0
402,273,3389,0,128,0
403,276,3297,0,128,0
403,351,5555,0,128,0
403,523,4940,0,128,0
403,578,7622,0,128,0
404,52,1876,0,128,0
404,105,4332,0,128,0
404,173,4726,0,128,0
404,235,4024,0,128,0
404,371,5195,0,128,0
405,76,2563,0,128,0
405,124,4068,0,128,0
405,125,4066,0,128,0
405,215,4045,0,128,0
405,227,3933,0,128,0
406,113,4321,0,128,0
406,178,4571,0,128,0
406,246,3585,0,128,0
406,353,5453,0,128,0
407,113,4287,0,128,0
407,164,4796,0,128,0
408,104,4143,0,128,0
408,158,4718,0,128,0
408,260,3335,0,128,0
408,297,3492,0,128,0
409,104,4150,0,128,0
409,292,3477,0,128,0
409,341,5712,0,128,0
409,578,7605,0,128,0
410,374,5206,0,128,0
410,529,5141,0,128,0
411,239,3705,0,128,0
411,264,3270,0,128,0
412,39,2085,0,128,0
412,142,4467,0,128,0
412,182,4702,0,128,0
412,264,3167,0,128,0
413,522,5137,0,128,0
414,225,3803,0,128,0
414,231,3795,0,128,0
414,330,5484,0,128,0
415,44,2140,0,128,0
415,140,4698,0,128,0
415,162,4487,0,128,0
415,231,3803,0,128,0
415,540,6564,0,128,0
416,27,1974,0,128,0
416,236,3587,0,128,0
416,353,5408,0,128,0
416,390,5151,0,128,0
416,582,7396,0,128,0
417,300,3734,0,128,0
417,334,5475,0,128,0
417,517,5181,0,128,0
417,589,7288,0,128,0
418,30,2062,0,128,0
418,183,4573,0,128,0
418,259,3234,0,128,0
418,292,3271,0,128,0
418,304,3917,0,128,0
418,354,5390,0,128,0
418,391,5020,0,128,0
418,517,5191,0,128,0
418,588,7367,0,128,0
419,161,4684,0,128,0
419,212,4369,0,128,0
419,236,3559,0,128,0
419,563,7618,0,128,0
419,578,7412,0,128,0
420,107,3922,0,128,0
420,367,5044,0,128,0
420,559,7402,0,128,0
421,126,3750,0,128,0
421,140,4770,0,128,0
421,237,3697,0,128,0
421,250,3452,0,128,0
421,366,5079,0,128,0
421,370,4858,0,128,0
422,164,4378,0,128,0
422,196,4507,0,128,0
422,278,3182,0,128,0
422,347,5248,0,128,0
422,366,5133,0,128,0
422,542,6285,0,128,0
422,572,7533,0,128,0
423,113,3676,0,128,0
423,120,3635,0,128,0
423,287,3204,0,128,0
423,541,5841,0,128,0
423,564,7599,0,128,0
424,588,7379,0,128,0
425,113,3574,0,128,0
425,118,3638,0,128,0
425,169,4363,0,128,0
425,177,4556,0,128,0
425,218,4264,0,128,0
425,256,3320,0,128,0
425,257,3328,0,128,0
425,286,3200,0,128,0
425,364,5123,0,128,0
426,198,4505,0,128,0
426,260,3393,0,128,0
426,338,5569,0,128,0
427,125,3741,0,128,0
427,239,3808,0,128,0
427,248,3579,0,128,0
427,254,3515,0,128,0
427,435,5419,0,128,0
427,436,5459,0,128,0
427,469,5376,0,128,0
427,538,5469,0,128,0
428,219,4233,0,128,0
428,383,4965,0,128,0
428,401,4938,0,128,0
429,134,4028,0,128,0
429,139,3934,0,128,0
429,282,3129,0,128,0
429,411,4900,0,128,0
429,469,5382,0,128,0
429,481,4784,0,128,0
429,572,7761,0,128,0
430,140,3932,0,128,0
430,383,4968,0,128,0
430,481,4792,0,128,0
430,551,7429,0,128,0
431,111,3490,0,128,0
431,174,4305,0,128,0
431,284,3345,0,128,0
431,301,4368,0,128,0
431,344,5250,0,128,0
432,235,4074,0,128,0
432,261,3410,0,128,0
432,273,3138,0,128,0
432,530,5518,0,128,0
434,276,3163,0,128,0
434,318,5377,0,128,0
434,331,5242,0,128,0
435,27,2985,0,128,0
435,127,3733,0,128,0
435,148,3980,0,128,0
435,346,5370,0,128,0
435,361,5022,0,128,0
436,26,2993,0,128,0
436,177,4216,0,128,0
437,22,3004,0,128,0
437,495,6006,0,128,0
438,167,4238,0,128,0
438,322,5315,0,128,0
438,323,5306,0,128,0
439,279,3442,0,128,0
439,360,4958,0,128,0
440,290,4003,0,128,0
440,297,4065,0,128,0
440,298,4057,0,128,0
440,557,7888,0,128,0
441,290,4011,0,128,0
441,313,4604,0,128,0
441,354,5221,0,128,0
441,551,7592,0,128,0
441,565,7954,0,128,0
442,152,3898,0,128,0
442,359,4915,0,128,0
442,422,5223,0,128,0
442,527,7052,0,128,0
443,422,5208,0,128,0
443,535,7048,0,128,0
443,567,8157,0,128,0
443,571,8245,0,128,0
444,149,3858,0,128,0
444,290,4115,0,128,0
444,520,7171,0,128,0
445,153,3978,0,128,0
445,551,7606,0,128,0
445,553,7607,0,128,0
446,145,3783,0,128,0
446,335,5062,0,128,0
446,350,4975,0,128,0
446,358,4909,0,128,0
447,131,3416,0,128,0
448,127,3302,0,128,0
448,489,6389,0,128,0
449,121,3131,0,128,0
449,204,6501,0,128,0
449,343,4919,0,128,0
449,546,7281,0,128,0
450,118,3130,0,128,0
450,204,6472,0,128,0
451,141,3791,0,128,0
451,552,7462,0,128,0
451,567,8313,0,128,0
451,568,8308,0,128,0
453,216,6671,0,128,0
453,587,8102,0,128,0
454,333,5137,0,128,0
455,134,3280,0,128,0
455,341,5029,0,128,0
455,512,7147,0,128,0
456,19,2871,0,128,0
456,150,3884,0,128,0
456,214,6681,0,128,0
457,275,6457,0,128,0
457,325,5353,0,128,0
457,332,5092,0,128,0
459,253,6322,0,128,0
459,254,6315,0,128,0
459,289,6635,0,128,0
459,553,7645,0,128,0
460,186,6790,0,128,0
460,570,8077,0,128,0
460,586,8183,0,128,0
461,270,6492,0,128,0
461,360,4799,0,128,0
461,480,6414,0,128,0
461,481,6429,0,128,0
462,137,3226,0,128,0
462,270,6481,0,128,0
462,290,6609,0,128,0
462,582,8169,0,128,0
463,53,3140,0,128,0
463,131,3093,0,128,0
463,227,6506,0,128,0
464,327,5482,0,128,0
464,566,7891,0,128,0
465,118,2421,0,128,0
465,567,7895,0,128,0
466,124,2598,0,128,0
466,312,6357,0,128,0
466,585,8303,0,128,0
467,363,4683,0,128,0
468,139,3248,0,128,0
468,190,6780,0,128,0
468,327,5779,0,128,0
468,336,5805,0,128,0
468,366,4679,0,128,0
468,522,7401,0,128,0
469,51,3017,0,128,0
469,52,2936,0,128,0
469,323,5870,0,128,0
469,442,5208,0,128,0
469,530,7349,0,128,0
470,151,3521,0,128,0
470,190,6817,0,128,0
470,233,6069,0,128,0
470,234,6121,0,128,0
470,536,7134,0,128,0
471,145,3364,0,128,0
471,167,7295,0,128,0
471,517,7119,0,128,0
471,564,8126,0,128,0
472,167,7263,0,128,0
472,183,7312,0,128,0
472,562,8051,0,128,0
473,591,7685,0,128,0
474,175,7291,0,128,0
474,176,7261,0,128,0
474,284,6397,0,128,0
474,539,7095,0,128,0
475,51,2979,0,128,0
475,64,2893,0,128,0
475,282,6382,0,128,0
475,565,8069,0,128,0
476,217,6663,0,128,0
476,311,6516,0,128,0
476,323,6289,0,128,0
476,444,5220,0,128,0
476,547,7289,0,128,0
476,591,7784,0,128,0
477,134,3110,0,128,0
477,228,6392,0,128,0
477,584,8208,0,128,0
478,67,2799,0,128,0
478,136,3149,0,128,0
478,584,8207,0,128,0
479,37,3112,0,128,0
479,73,2708,0,128,0
479,75,2702,0,128,0
479,177,7036,0,128,0
479,440,5176,0,128,0
479,574,8025,0,128,0
480,122,2479,0,128,0
480,341,5681,0,128,0
480,342,5681,0,128,0
480,364,4616,0,128,0
481,121,2471,0,128,0
481,364,4615,0,128,0
482,539,7087,0,128,0
483,302,6475,0,128,0
483,388,4622,0,128,0
484,65,2786,0,128,0
484,321,6527,0,128,0
484,363,4681,0,128,0
485,51,3000,0,128,0
485,141,3124,0,128,0
485,303,6454,0,128,0
485,475,6367,0,128,0
486,90,2735,0,128,0
486,442,5160,0,128,0
486,475,6348,0,128,0
486,544,7061,0,128,0
486,557,8106,0,128,0
486,580,8067,0,128,0
487,110,2485,0,128,0
487,338,5656,0,128,0
487,420,4787,0,128,0
487,538,6986,0,128,0
487,555,7964,0,128,0
487,573,7783,0,128,0
488,310,6397,0,128,0
489,88,2762,0,128,0
489,338,5659,0,128,0
489,372,4576,0,128,0
489,533,6656,0,128,0
490,89,2904,0,128,0
490,163,6951,0,128,0
490,169,6921,0,128,0
490,200,6635,0,128,0
490,328,5752,0,128,0
490,349,5349,0,128,0
490,376,4735,0,128,0
490,392,4610,0,128,0
490,539,6665,0,128,0
491,48,3077,0,128,0
491,163,6948,0,128,0
491,354,5448,0,128,0
491,401,4624,0,128,0
491,413,4809,0,128,0
492,107,2577,0,128,0
492,137,3336,0,128,0
492,226,6477,0,128,0
492,227,6419,0,128,0
492,410,4820,0,128,0
492,568,7713,0,128,0
493,33,3302,0,128,0
493,175,6884,0,128,0
493,186,6733,0,128,0
493,190,6855,0,128,0
493,373,4633,0,128,0
493,584,7969,0,128,0
494,209,6638,0,128,0
494,225,6502,0,128,0
494,341,5669,0,128,0
495,80,3007,0,128,0
495,132,3430,0,128,0
495,171,6941,0,128,0
495,183,6667,0,128,0
496,85,3125,0,128,0
496,121,2830,0,128,0
496,586,7759,0,128,0
497,54,2950,0,128,0
497,121,2860,0,128,0
497,134,3409,0,128,0
497,288,6087,0,128,0
497,473,6446,0,128,0
498,50,3122,0,128,0
498,416,5056,0,128,0
498,553,7489,0,128,0
499,59,2890,0,128,0
499,310,5949,0,128,0
499,373,4860,0,128,0
499,587,7854,0,128,0
500,63,2951,0,128,0
500,332,5679,0,128,0
500,355,5296,0,128,0
500,516,6486,0,128,0
501,517,6476,0,128,0
501,535,6263,0,128,0
502,87,3458,0,128,0
502,88,3384,0,128,0
502,553,7577,0,128,0
502,567,7501,0,128,0
503,427,5059,0,128,0
503,462,6540,0,128,0
503,588,7757,0,128,0
504,60,3164,0,128,0
504,200,6715,0,128,0
504,327,5609,0,128,0
504,358,5252,0,128,0
504,411,4908,0,128,0
504,426,5085,0,128,0
506,81,3695,0,128,0
506,176,7129,0,128,0
506,297,5874,0,128,0
506,381,4807,0,128,0
506,440,5105,0,128,0
506,464,6706,0,128,0
507,29,3128,0,128,0
507,38,3338,0,128,0
507,179,7033,0,128,0
507,282,5851,0,128,0
507,338,5589,0,128,0
507,374,5047,0,128,0
507,440,5108,0,128,0
507,559,7572,0,128,0
508,158,7627,0,128,0
508,375,5042,0,128,0
508,466,6569,0,128,0
508,552,7423,0,128,0
508,559,7570,0,128,0
508,565,7494,0,128,0
509,277,5998,0,128,0
509,375,5026,0,128,0
510,179,6973,0,128,0
510,306,5866,0,128,0
510,314,5692,0,128,0
510,369,4830,0,128,0
510,427,4929,0,128,0
510,577,7420,0,128,0
511,300,5842,0,128,0
511,318,5592,0,128,0
511,473,6480,0,128,0
512,197,6595,0,128,0
512,389,4791,0,128,0
512,538,5774,0,128,0
513,141,7440,0,128,0
513,167,6955,0,128,0
513,294,5717,0,128,0
513,350,5200,0,128,0
513,429,5018,0,128,0
513,558,7501,0,128,0
514,320,5459,0,128,0
515,329,5327,0,128,0
515,347,5151,0,128,0
515,389,4820,0,128,0
516,139,7313,0,128,0
516,141,7231,0,128,0
516,155,7341,0,128,0
516,293,5663,0,128,0
516,331,5368,0,128,0
516,338,5349,0,128,0
516,387,4855,0,128,0
516,395,4651,0,128,0
516,408,4985,0,128,0
517,100,5127,0,128,0
517,155,7346,0,128,0
517,195,6783,0,128,0
518,81,4195,0,128,0
518,195,6796,0,128,0
518,279,5788,0,128,0
519,102,5151,0,128,0
519,294,5638,0,128,0
519,295,5656,0,128,0
519,537,5434,0,128,0
520,405,4852,0,128,0
520,531,5426,0,128,0
520,537,5319,0,128,0
521,131,7404,0,128,0
521,192,6805,0,128,0
521,403,4832,0,128,0
521,531,5323,0,128,0
521,573,7235,0,128,0
521,584,7387,0,128,0
522,138,7416,0,128,0
522,203,6453,0,128,0
522,346,5041,0,128,0
522,347,5036,0,128,0
522,557,7347,0,128,0
523,161,7171,0,128,0
523,422,4943,0,128,0
523,557,7332,0,128,0
524,206,6526,0,128,0
524,278,5829,0,128,0
524,318,5434,0,128,0
524,323,5229,0,128,0
524,369,4960,0,128,0
524,407,4802,0,128,0
524,415,4754,0,128,0
524,585,7335,0,128,0
525,82,4352,0,128,0
525,312,5403,0,128,0
525,345,5009,0,128,0
525,363,4847,0,128,0
526,170,6882,0,128,0
526,171,6863,0,128,0
526,215,6344,0,128,0
526,369,4889,0,128,0
526,383,4587,0,128,0
527,214,6331,0,128,0
527,220,6382,0,128,0
527,263,5866,0,128,0
527,404,4820,0,128,0
527,580,7124,0,128,0
528,85,5136,0,128,0
528,203,6553,0,128,0
528,262,5775,0,128,0
528,263,5759,0,128,0
528,297,4401,0,128,0
528,305,5525,0,128,0
529,132,7647,0,128,0
529,164,7019,0,128,0
529,187,6713,0,128,0
529,291,5584,0,128,0
530,49,5582,0,128,0
530,162,7078,0,128,0
530,176,6925,0,128,0
530,177,6914,0,128,0
530,379,4693,0,128,0
530,451,4775,0,128,0
531,179,6922,0,128,0
531,306,5533,0,128,0
531,379,4693,0,128,0
531,413,4652,0,128,0
531,416,4825,0,128,0
532,135,7691,0,128,0
532,270,5581,0,128,0
532,325,5266,0,128,0
532,432,4678,0,128,0
532,433,4640,0,128,0
533,129,7808,0,128,0
533,142,7543,0,128,0
533,307,5404,0,128,0
533,341,5218,0,128,0
533,371,4760,0,128,0
533,386,4644,0,128,0
533,533,5133,0,128,0
533,571,6855,0,128,0
534,120,7679,0,128,0
534,232,6063,0,128,0
534,259,5735,0,128,0
534,403,4594,0,128,0
535,181,6762,0,128,0
535,284,5645,0,128,0
535,345,5186,0,128,0
535,455,4970,0,128,0
536,51,5703,0,128,0
536,52,5698,0,128,0
536,89,5915,0,128,0
536,111,7626,0,128,0
536,213,6270,0,128,0
537,191,6629,0,128,0
537,331,5460,0,128,0
537,332,5560,0,128,0
537,392,4536,0,128,0
538,49,5742,0,128,0
538,165,6934,0,128,0
538,239,5867,0,128,0
538,394,4512,0,128,0
538,542,5385,0,128,0
539,65,5833,0,128,0
539,349,5184,0,128,0
540,237,5949,0,128,0
540,355,4865,0,128,0
540,581,6910,0,128,0
541,70,6278,0,128,0
541,71,6254,0,128,0
541,282,5709,0,128,0
541,411,4425,0,128,0
541,460,4943,0,128,0
541,522,4529,0,128,0
542,106,7791,0,128,0
542,269,5611,0,128,0
542,293,5339,0,128,0
542,460,4933,0,128,0
543,21,5755,0,128,0
543,22,5752,0,128,0
543,47,5768,0,128,0
543,94,7827,0,128,0
543,115,7717,0,128,0
543,262,5787,0,128,0
543,396,4441,0,128,0
544,168,6774,0,128,0
544,306,5168,0,128,0
544,307,5124,0,128,0
544,433,4415,0,128,0
545,355,4906,0,128,0
545,458,4817,0,128,0
546,114,7696,0,128,0
546,120,7676,0,128,0
546,195,6259,0,128,0
546,326,5130,0,128,0
546,380,4428,0,128,0
546,390,4448,0,128,0
546,415,4249,0,128,0
546,449,4536,0,128,0
547,180,6580,0,128,0
547,181,6566,0,128,0
547,532,4472,0,128,0
547,573,6480,0,128,0
548,195,6346,0,128,0
548,369,4549,0,128,0
548,376,4454,0,128,0
548,523,4374,0,128,0
548,528,4452,0,128,0
549,140,7456,0,128,0
549,224,6254,0,128,0
549,245,5930,0,128,0
550,222,6289,0,128,0
550,273,5910,0,128,0
550,274,5944,0,128,0
551,110,7712,0,128,0
551,125,7395,0,128,0
551,170,6847,0,128,0
551,382,4357,0,128,0
551,383,4370,0,128,0
551,521,4303,0,128,0
551,591,6778,0,128,0
551,592,6787,0,128,0
552,47,5539,0,128,0
552,127,7470,0,128,0
552,232,6299,0,128,0
552,357,4789,0,128,0
552,414,4232,0,128,0
552,435,4404,0,128,0
552,513,4291,0,128,0
553,89,8288,0,128,0
553,142,7361,0,128,0
553,414,4225,0,128,0
554,6,5831,0,128,0
554,65,5663,0,128,0
554,66,5670,0,128,0
554,171,6929,0,128,0
554,402,4289,0,128,0
554,446,4358,0,128,0
554,586,6342,0,128,0
555,55,5479,0,128,0
555,144,7238,0,128,0
555,267,6120,0,128,0
555,402,4245,0,128,0
555,520,4188,0,128,0
556,152,7005,0,128,0
556,162,6890,0,128,0
556,189,6686,0,128,0
556,267,6115,0,128,0
557,31,5729,0,128,0
557,91,8340,0,128,0
557,92,8344,0,128,0
557,189,6811,0,128,0
557,267,6153,0,128,0
558,50,5409,0,128,0
558,255,6095,0,128,0
558,421,4112,0,128,0
558,444,4236,0,128,0
559,121,7533,0,128,0
559,234,6132,0,128,0
559,252,6123,0,128,0
559,387,4362,0,128,0
560,40,5565,0,128,0
560,50,5393,0,128,0
560,52,5407,0,128,0
560,95,8256,0,128,0
560,105,7943,0,128,0
560,106,7937,0,128,0
560,157,6942,0,128,0
560,250,6088,0,128,0
561,102,7974,0,128,0
561,175,7177,0,128,0
561,441,4161,0,128,0
562,242,6092,0,128,0
562,329,5058,0,128,0
562,442,4054,0,128,0
563,148,7379,0,128,0
563,268,6303,0,128,0
563,348,4895,0,128,0
563,368,4496,0,128,0
563,393,4493,0,128,0
563,404,4242,0,128,0
563,574,6209,0,128,0
563,581,6190,0,128,0
564,144,7367,0,128,0
564,163,7288,0,128,0
564,386,4451,0,128,0
565,29,5622,0,128,0
565,237,6155,0,128,0
565,250,6198,0,128,0
565,335,5008,0,128,0
565,348,4912,0,128,0
565,430,3901,0,128,0
566,107,7970,0,128,0
566,109,7944,0,128,0
566,174,7256,0,128,0
566,332,5041,0,128,0
566,428,3987,0,128,0
567,11,5552,0,128,0
567,53,5398,0,128,0
567,163,7415,0,128,0
567,250,6153,0,128,0
567,384,4456,0,128,0
567,453,4450,0,128,0
568,61,5068,0,128,0
568,122,7900,0,128,0
568,174,7144,0,128,0
568,266,6314,0,128,0
568,348,4928,0,128,0
569,14,5519,0,128,0
569,33,5617,0,128,0
569,131,7856,0,128,0
569,142,7685,0,128,0
569,335,4961,0,128,0
570,53,5368,0,128,0
570,231,6277,0,128,0
570,232,6300,0,128,0
570,576,5870,0,128,0
571,587,5906,0,128,0
572,142,7795,0,128,0
573,143,7802,0,128,0
573,166,7531,0,128,0
573,178,7425,0,128,0
573,186,7351,0,128,0
573,252,5969,0,128,0
573,404,4582,0,128,0
573,431,3791,0,128,0
574,107,8014,0,128,0
575,76,5183,0,128,0
575,138,7914,0,128,0
575,260,6119,0,128,0
575,431,3793,0,128,0
577,76,5089,0,128,0
577,452,4187,0,128,0
577,576,5713,0,128,0
579,127,8219,0,128,0
579,356,4878,0,128,0
579,538,6105,0,128,0
579,547,5939,0,128,0
579,548,5937,0,128,0
580,145,7885,0,128,0
580,161,7282,0,128,0
580,250,5963,0,128,0
580,350,5057,0,128,0
581,149,7880,0,128,0
581,556,5968,0,128,0
581,582,5587,0,128,0
582,16,5210,0,128,0
582,122,8086,0,128,0
582,181,7263,0,128,0
582,257,5809,0,128,0
582,394,4401,0,128,0
583,26,5117,0,128,0
583,525,6015,0,128,0
584,15,5197,0,128,0
584,57,5421,0,128,0
584,180,7096,0,128,0
584,235,6492,0,128,0
584,264,5835,0,128,0
584,403,4297,0,128,0
585,84,5200,0,128,0
586,15,5137,0,128,0
586,178,7023,0,128,0
586,240,6323,0,128,0
586,334,5115,0,128,0
586,335,5046,0,128,0
587,157,7053,0,128,0
587,533,5880,0,128,0
587,551,5942,0,128,0
587,576,5527,0,128,0
588,169,6923,0,128,0
588,171,6932,0,128,0
588,172,6935,0,128,0
588,404,4277,0,128,0
589,409,4341,0,128,0
589,573,5485,0,128,0
590,236,6275,0,128,0
590,557,5780,0,128,0
591,218,6437,0,128,0
593,168,6802,0,128,0
594,107,5247,0,128,0
595,168,6937,0,128,0
596,106,5233,0,128,0
