x,y,z,r,g,b
1300,29300,74,0,128,0
1400,25300,1,0,128,0
1600,25600,2,0,128,0
1600,26600,14,0,128,0
1600,29200,67,0,128,0
1700,26900,20,0,128,0
1700,27000,21,0,128,0
1700,28500,47,0,128,0
1700,28600,49,0,128,0
1800,24800,0,0,128,0
1800,27800,32,0,128,0
1900,26300,13,0,128,0
2000,27700,31,0,128,0
2100,25500,4,0,128,0
2100,25600,5,0,128,0
2100,27600,30,0,128,0
2100,27700,32,0,128,0
2200,26400,16,0,128,0
2200,26500,17,0,128,0
2400,25500,7,0,128,0
2400,29500,75,0,128,0
2500,29300,76,0,128,0
2600,25000,8,0,128,0
2700,24600,16,0,128,0
2800,24700,16,0,128,0
3200,27400,32,0,128,0
3400,29200,103,0,128,0
3600,27500,33,0,128,0
4100,27400,35,0,128,0
4200,27500,37,0,128,0
4400,24200,51,0,128,0
4500,24200,51,0,128,0
4700,24800,75,0,128,0
5000,23600,31,0,128,0
5100,23600,30,0,128,0
5100,25900,83,0,128,0
5800,22900,14,0,128,0
6000,26300,121,0,128,0
6000,27300,145,0,128,0
6000,28100,155,0,128,0
6500,25800,122,0,128,0
6800,28400,174,0,128,0
6900,28000,181,0,128,0
7200,23000,5,0,128,0
7200,23100,8,0,128,0
7300,27900,185,0,128,0
7600,26700,150,0,128,0
7700,21500,0,0,128,0
7900,21100,0,0,128,0
7900,21900,0,0,128,0
8200,27000,164,0,128,0
8400,20600,0,0,128,0
8500,26700,172,0,128,0
8700,28300,214,0,128,0
8800,28800,216,0,128,0
9100,29000,216,0,128,0
9200,26200,200,0,128,0
9200,29100,216,0,128,0
9300,18900,1,0,128,0
9400,27100,192,0,128,0
9900,21400,27,0,128,0
10000,19100,0,0,128,0
10000,21700,31,0,128,0
10200,19200,0,0,128,0
10200,21200,25,0,128,0
10200,23000,57,0,128,0
10300,19300,0,0,128,0
10300,28700,244,0,128,0
10500,20100,0,0,128,0
10500,29100,249,0,128,0
10600,25900,236,0,128,0
10600,29100,250,0,128,0
10700,21000,21,0,128,0
10800,22200,45,0,128,0
10800,28700,249,0,128,0
10900,18900,0,0,128,0
10900,20300,1,0,128,0
10900,21100,24,0,128,0
10900,24000,86,0,128,0
11000,21200,25,0,128,0
11100,20400,3,0,128,0
11100,22700,53,0,128,0
11300,18700,0,0,128,0
11300,23600,90,0,128,0
11300,25700,249,0,128,0
11400,19100,0,0,128,0
11400,22900,56,0,128,0
11500,28500,255,0,128,0
11600,18500,0,0,128,0
11600,18700,0,0,128,0
11800,17700,0,0,128,0
11800,26400,259,0,128,0
11900,18300,0,0,128,0
11900,27900,253,0,128,0
12000,23100,63,0,128,0
12100,27300,267,0,128,0
12200,28500,261,0,128,0
12300,24100,79,0,128,0
12500,24600,81,0,128,0
12500,24700,83,0,128,0
12700,24900,88,0,128,0
12800,19100,49,0,128,0
12800,19600,50,0,128,0
12900,19700,50,0,128,0
12900,25400,98,0,128,0
12900,29000,269,0,128,0
13200,19300,45,0,128,0
13300,17900,31,0,128,0
13300,18500,41,0,128,0
13400,17400,31,0,128,0
13400,17800,31,0,128,0
13500,16900,31,0,128,0
13600,16200,31,0,128,0
13600,16400,31,0,128,0
13600,16500,32,0,128,0
13600,29100,275,0,128,0
13800,16200,31,0,128,0
14100,15900,30,0,128,0
14100,25600,134,0,128,0
14200,17400,39,0,128,0
14500,12700,0,0,128,0
14500,15600,29,0,128,0
14500,26400,133,0,128,0
14800,11800,0,0,128,0
14800,15100,31,0,128,0
15100,9000,7,0,128,0
15100,11600,1,0,128,0
15100,27100,3,0,128,0
15200,8700,19,0,128,0
15200,10200,0,0,128,0
15200,13100,25,0,128,0
15200,13200,27,0,128,0
15300,10600,0,0,128,0
15300,10900,0,0,128,0
15400,12000,1,0,128,0
15400,14100,41,0,128,0
15400,22600,290,0,128,0
15500,22600,290,0,128,0
15500,23700,287,0,128,0
15600,13500,27,0,128,0
15700,13500,24,0,128,0
15700,14200,60,0,128,0
15800,10800,0,0,128,0
16000,13300,14,0,128,0
16100,12800,5,0,128,0
16200,8500,40,0,128,0
16200,10900,0,0,128,0
16200,14600,77,0,128,0
16200,22800,290,0,128,0
16300,16200,102,0,128,0
16300,24000,280,0,128,0
16400,15700,97,0,128,0
16400,22500,291,0,128,0
16400,22900,292,0,128,0
16400,23200,290,0,128,0
16500,12900,9,0,128,0
16500,13100,11,0,128,0
16500,15700,97,0,128,0
16700,8700,43,0,128,0
16700,9000,33,0,128,0
16700,12800,11,0,128,0
16700,21600,338,0,128,0
16900,13100,13,0,128,0
16900,13300,15,0,128,0
16900,24400,271,0,128,0
17000,10900,0,0,128,0
17100,8000,66,0,128,0
17100,13700,24,0,128,0
17200,7500,71,0,128,0
17200,11000,0,0,128,0
17200,24500,269,0,128,0
17300,8200,67,0,128,0
17300,11300,0,0,128,0
17300,13200,8,0,128,0
17500,14000,31,0,128,0
17600,12300,26,0,128,0
17600,12400,26,0,128,0
17700,21200,374,0,128,0
17800,8700,92,0,128,0
17800,13300,5,0,128,0
17800,14000,33,0,128,0
17800,15100,97,0,128,0
17800,21300,383,0,128,0
17800,24700,265,0,128,0
17900,10800,0,0,128,0
18000,15500,111,0,128,0
18100,8800,103,0,128,0
18100,12800,30,0,128,0
18300,4900,39,0,128,0
18400,9200,115,0,128,0
18400,12700,34,0,128,0
18500,15700,121,0,128,0
18600,4900,40,0,128,0
18600,5100,30,0,128,0
18600,27400,0,0,128,0
18700,9400,125,0,128,0
18800,3900,28,0,128,0
18800,8900,129,0,128,0
18900,4700,54,0,128,0
19000,12700,43,0,128,0
19100,4400,44,0,128,0
19100,16500,142,0,128,0
19200,16100,134,0,128,0
19400,16200,133,0,128,0
19400,17900,182,0,128,0
19600,16000,115,0,128,0
19600,18000,183,0,128,0
19700,5700,0,0,128,0
19700,7000,0,0,128,0
19700,7200,0,0,128,0
19800,20400,439,0,128,0
19900,400,30,0,128,0
19900,800,34,0,128,0
19900,1700,42,0,128,0
19900,2400,49,0,128,0
19900,4200,55,0,128,0
19900,4300,55,0,128,0
19900,15600,91,0,128,0
19900,18000,182,0,128,0
19900,23300,561,0,128,0
20000,6300,0,0,128,0
20000,6800,0,0,128,0
20100,1600,40,0,128,0
20100,21800,568,0,128,0
20200,1100,35,0,128,0
20200,2700,52,0,128,0
20300,1100,35,0,128,0
20300,1700,40,0,128,0
20300,2700,52,0,128,0
20300,17700,179,0,128,0
20300,17800,181,0,128,0
20300,23600,562,0,128,0
20300,24100,548,0,128,0
20400,9900,178,0,128,0
20400,20300,441,0,128,0
20500,2400,50,0,128,0
20600,7500,0,0,128,0
20600,28700,0,0,128,0
20700,200,28,0,128,0
20700,1700,39,0,128,0
20700,21500,546,0,128,0
20800,2500,52,0,128,0
20800,3000,55,0,128,0
20800,3600,62,0,128,0
20900,2800,54,0,128,0
21000,2800,54,0,128,0
21000,4400,70,0,128,0
21000,4500,72,0,128,0
21000,22300,549,0,128,0
21100,2400,52,0,128,0
21100,15700,112,0,128,0
21100,19900,429,0,128,0
21100,23300,546,0,128,0
21100,24500,530,0,128,0
21200,0,27,0,128,0
21200,3600,65,0,128,0
21300,100,28,0,128,0
21300,5100,84,0,128,0
21300,10600,237,0,128,0
21400,2400,52,0,128,0
21500,2700,54,0,128,0
21500,10900,254,0,128,0
21500,15600,120,0,128,0
21500,19700,404,0,128,0
21600,9400,210,0,128,0
21600,24800,520,0,128,0
21600,25200,514,0,128,0
21700,5200,84,0,128,0
21800,5200,84,0,128,0
21800,10600,254,0,128,0
21800,11600,296,0,128,0
21800,19100,379,0,128,0
21900,15600,127,0,128,0
22000,1600,35,0,128,0
22000,12400,315,0,128,0
22100,400,35,0,128,0
22100,4300,65,0,128,0
22100,5400,86,0,128,0
22100,12100,313,0,128,0
22100,28600,0,0,128,0
22200,4300,67,0,128,0
22200,15400,133,0,128,0
22300,1000,24,0,128,0
22300,5500,86,0,128,0
22400,5500,87,0,128,0
22400,9800,227,0,128,0
22400,19700,384,0,128,0
22600,5900,77,0,128,0
22700,1300,22,0,128,0
22800,1000,12,0,128,0
22800,20000,379,0,128,0
22900,12100,353,0,128,0
22900,13600,355,0,128,0
23000,2600,56,0,128,0
23100,19000,352,0,128,0
23200,13500,362,0,128,0
23300,1300,2,0,128,0
23300,5100,86,0,128,0
23400,2700,52,0,128,0
23400,5300,87,0,128,0
23600,5000,87,0,128,0
23600,5700,93,0,128,0
23600,6200,101,0,128,0
23600,20200,346,0,128,0
23600,20300,342,0,128,0
23600,25900,515,0,128,0
23700,1400,0,0,128,0
23700,2700,52,0,128,0
23700,3200,56,0,128,0
23800,7400,137,0,128,0
23800,15200,176,0,128,0
23900,10100,261,0,128,0
24000,6700,117,0,128,0
24100,6800,120,0,128,0
24100,10100,265,0,128,0
24200,19800,334,0,128,0
24200,20300,329,0,128,0
24200,26100,526,0,128,0
24500,16100,205,0,128,0
24500,16600,207,0,128,0
24600,15600,202,0,128,0
24600,15800,205,0,128,0
24700,1700,0,0,128,0
24700,8000,164,0,128,0
24700,13900,407,0,128,0
24800,19300,308,0,128,0
24900,1600,0,0,128,0
24900,9900,276,0,128,0
24900,11900,443,0,128,0
25000,12700,457,0,128,0
25000,12800,458,0,128,0
25000,20200,312,0,128,0
25000,23000,364,0,128,0
25100,25900,523,0,128,0
25200,1800,0,0,128,0
25200,7400,124,0,128,0
25200,20100,308,0,128,0
25200,27100,487,0,128,0
25300,11600,462,0,128,0
25300,12300,454,0,128,0
25300,12400,456,0,128,0
25300,27100,487,0,128,0
25300,27900,451,0,128,0
25400,7600,129,0,128,0
25400,11600,464,0,128,0
25400,18600,307,0,128,0
25500,1600,0,0,128,0
25500,1800,0,0,128,0
25500,7900,134,0,128,0
25500,22400,328,0,128,0
25500,25700,527,0,128,0
25600,2200,0,0,128,0
25600,13600,459,0,128,0
25700,2300,0,0,128,0
25700,13800,443,0,128,0
25800,1600,0,0,128,0
25800,14200,428,0,128,0
25800,19700,290,0,128,0
25900,20100,286,0,128,0
26000,14300,427,0,128,0
26000,20800,279,0,128,0
26100,2500,0,0,128,0
26100,7900,143,0,128,0
26100,8200,148,0,128,0
26200,2600,0,0,128,0
26200,7900,142,0,128,0
26200,25500,492,0,128,0
26300,22600,324,0,128,0
26300,26400,513,0,128,0
26300,26500,514,0,128,0
26300,26900,510,0,128,0
26300,28100,490,0,128,0
26400,1700,0,0,128,0
26400,2800,0,0,128,0
26400,16900,213,0,128,0
26400,27500,495,0,128,0
26400,27600,494,0,128,0
26400,27900,493,0,128,0
26500,16800,212,0,128,0
26500,20400,278,0,128,0
26500,22400,326,0,128,0
26600,22100,328,0,128,0
26600,25500,458,0,128,0
26700,1500,0,0,128,0
26700,12300,520,0,128,0
26700,12400,523,0,128,0
26800,3600,0,0,128,0
26800,19000,280,0,128,0
26900,28500,566,0,128,0
27000,1200,0,0,128,0
27000,19000,263,0,128,0
27000,21500,314,0,128,0
27200,3600,0,0,128,0
27300,1200,0,0,128,0
27300,22400,298,0,128,0
27300,29200,564,0,128,0
27300,29300,563,0,128,0
27400,13700,570,0,128,0
27500,8500,139,0,128,0
27500,22000,296,0,128,0
27600,25200,442,0,128,0
27700,3600,0,0,128,0
27700,20800,290,0,128,0
27700,24900,441,0,128,0
27700,25200,441,0,128,0
27800,18400,210,0,128,0
27800,18700,211,0,128,0
27800,19000,210,0,128,0
27900,29200,553,0,128,0
28000,13200,598,0,128,0
28100,1100,0,0,128,0
28100,1200,0,0,128,0
28100,8600,145,0,128,0
28300,2000,0,0,128,0
28300,2200,0,0,128,0
28300,18600,220,0,128,0
28300,29500,541,0,128,0
28400,1700,0,0,128,0
28400,8300,145,0,128,0
28400,8600,143,0,128,0
28400,29000,553,0,128,0
28500,19000,220,0,128,0
28500,27800,588,0,128,0
28800,4700,3,0,128,0
28800,8300,162,0,128,0
28800,27800,588,0,128,0
28900,19300,225,0,128,0
29000,1100,0,0,128,0
29000,2100,0,0,128,0
29000,2200,0,0,128,0
29000,12400,655,0,128,0
29000,17100,239,0,128,0
29000,18100,235,0,128,0
29000,28700,563,0,128,0
29100,4200,0,0,128,0
29100,13200,622,0,128,0
29100,17000,240,0,128,0
29100,25400,429,0,128,0
29200,25400,427,0,128,0
29300,19400,221,0,128,0
29400,28600,565,0,128,0
