x,y,z,r,g,b
0,28900,46,255,0,0
500,28400,26,255,0,0
700,28300,21,255,0,0
800,28500,40,255,0,0
1000,27200,12,255,0,0
1000,28200,24,255,0,0
1200,25200,0,255,0,0
1200,28600,45,255,0,0
1400,27600,27,255,0,0
1600,28500,46,255,0,0
1800,26500,14,255,0,0
1900,24700,0,255,0,0
1900,26900,20,255,0,0
1900,29900,80,255,0,0
2000,26000,10,255,0,0
2000,27500,28,255,0,0
2300,25500,6,255,0,0
2300,26400,16,255,0,0
2300,29700,76,255,0,0
2300,29800,78,255,0,0
2400,24400,9,255,0,0
2400,24700,10,255,0,0
2500,28300,56,255,0,0
2500,28700,70,255,0,0
2500,29400,76,255,0,0
2600,23900,0,255,0,0
2600,25100,8,255,0,0
2600,26400,16,255,0,0
2600,28600,69,255,0,0
2700,24400,17,255,0,0
2800,23700,1,255,0,0
2900,28300,56,255,0,0
3000,25100,19,255,0,0
3000,25900,31,255,0,0
3100,25800,41,255,0,0
3100,26300,16,255,0,0
3100,28500,69,255,0,0
3100,29700,107,255,0,0
3200,23600,13,255,0,0
3400,25600,42,255,0,0
3400,28400,64,255,0,0
3600,25300,47,255,0,0
3600,26200,39,255,0,0
3600,26300,28,255,0,0
3600,28500,70,255,0,0
3700,25000,50,255,0,0
3700,25100,50,255,0,0
3700,29600,121,255,0,0
3800,22900,18,255,0,0
3800,23000,21,255,0,0
3900,24500,55,255,0,0
4000,26300,38,255,0,0
4100,22400,18,255,0,0
4100,28600,68,255,0,0
4200,26000,75,255,0,0
4300,22500,19,255,0,0
4300,22800,22,255,0,0
4300,24300,56,255,0,0
4300,27900,47,255,0,0
4300,28500,59,255,0,0
4400,22100,15,255,0,0
4400,23000,25,255,0,0
4500,26500,37,255,0,0
4500,27400,36,255,0,0
4600,28300,56,255,0,0
4700,22000,2,255,0,0
4700,26500,56,255,0,0
4800,27100,36,255,0,0
4900,23400,30,255,0,0
5000,22200,14,255,0,0
5000,27600,53,255,0,0
5000,29200,109,255,0,0
5100,23800,31,255,0,0
5100,24300,47,255,0,0
5100,27100,56,255,0,0
5200,24300,45,255,0,0
5300,22400,7,255,0,0
5300,27700,88,255,0,0
5300,29600,107,255,0,0
5400,24100,31,255,0,0
5400,25800,86,255,0,0
5500,25500,82,255,0,0
5500,26800,107,255,0,0
5500,27200,105,255,0,0
5600,22600,5,255,0,0
5600,29500,152,255,0,0
5700,24400,39,255,0,0
5700,24900,80,255,0,0
5700,27600,143,255,0,0
5900,27300,143,255,0,0
6000,24400,49,255,0,0
6000,25500,122,255,0,0
6100,29700,170,255,0,0
6300,25000,125,255,0,0
6400,22600,1,255,0,0
6400,27400,141,255,0,0
6500,29900,170,255,0,0
6700,25300,126,255,0,0
6800,27300,145,255,0,0
6900,22900,3,255,0,0
6900,23500,25,255,0,0
6900,24400,148,255,0,0
7000,22900,3,255,0,0
7000,28200,185,255,0,0
7000,28600,183,255,0,0
7100,29000,180,255,0,0
7100,29400,169,255,0,0
7200,27800,181,255,0,0
7300,24700,148,255,0,0
7300,25100,128,255,0,0
7400,27300,151,255,0,0
7400,29600,165,255,0,0
7500,22500,0,255,0,0
7500,23200,9,255,0,0
7600,23300,11,255,0,0
7700,27000,151,255,0,0
7700,29500,183,255,0,0
7800,24900,147,255,0,0
7900,23300,12,255,0,0
8100,27200,166,255,0,0
8200,26900,163,255,0,0
8400,29600,193,255,0,0
8600,20600,2,255,0,0
8600,23300,11,255,0,0
8700,27800,199,255,0,0
8700,29600,197,255,0,0
8900,23000,9,255,0,0
8900,26100,186,255,0,0
8900,28400,216,255,0,0
9000,21700,9,255,0,0
9000,22300,13,255,0,0
9000,29100,216,255,0,0
9100,21700,16,255,0,0
9100,22100,21,255,0,0
9100,22700,19,255,0,0
9100,26100,201,255,0,0
9100,27700,189,255,0,0
9200,21400,16,255,0,0
9200,23300,24,255,0,0
9300,21000,18,255,0,0
9400,25000,213,255,0,0
9400,29400,211,255,0,0
9500,18100,6,255,0,0
9500,27200,192,255,0,0
9500,27900,205,255,0,0
9600,23100,46,255,0,0
9700,20500,23,255,0,0
9700,23900,79,255,0,0
9800,23600,66,255,0,0
9800,27500,192,255,0,0
9800,29600,213,255,0,0
10000,18900,1,255,0,0
10000,24000,85,255,0,0
10000,24900,207,255,0,0
10000,26600,198,255,0,0
10100,22500,53,255,0,0
10200,22900,56,255,0,0
10200,27500,193,255,0,0
10200,27600,192,255,0,0
10400,18200,2,255,0,0
10400,25100,218,255,0,0
10500,18800,2,255,0,0
10500,20400,2,255,0,0
10500,27700,192,255,0,0
10600,17500,0,255,0,0
10700,17800,0,255,0,0
10700,18100,2,255,0,0
10700,28700,248,255,0,0
10800,18600,2,255,0,0
10800,20400,3,255,0,0
10800,29200,248,255,0,0
10900,26700,202,255,0,0
11100,18600,1,255,0,0
11100,21300,25,255,0,0
11100,27600,204,255,0,0
11100,27800,206,255,0,0
11200,18400,3,255,0,0
11200,20400,2,255,0,0
11200,22100,44,255,0,0
11200,27400,206,255,0,0
11300,27300,205,255,0,0
11400,27700,226,255,0,0
11500,21000,23,255,0,0
11500,26700,259,255,0,0
11600,20500,1,255,0,0
11600,21400,38,255,0,0
11600,26400,259,255,0,0
11600,27100,247,255,0,0
11600,27600,240,255,0,0
11700,25300,223,255,0,0
11800,20900,21,255,0,0
11900,18800,0,255,0,0
11900,20400,0,255,0,0
11900,26300,257,255,0,0
11900,27100,266,255,0,0
12000,21500,53,255,0,0
12100,19200,3,255,0,0
12100,19500,1,255,0,0
12100,24600,86,255,0,0
12200,19700,7,255,0,0
12200,21800,55,255,0,0
12300,18900,23,255,0,0
12300,20100,16,255,0,0
12400,18700,22,255,0,0
12400,22200,56,255,0,0
12400,24700,83,255,0,0
12400,24800,87,255,0,0
12400,27400,267,255,0,0
12400,29500,235,255,0,0
12600,20300,50,255,0,0
12600,27800,271,255,0,0
12700,19600,50,255,0,0
12700,23300,66,255,0,0
12700,24300,83,255,0,0
12700,27700,275,255,0,0
12800,24300,86,255,0,0
12900,23800,83,255,0,0
12900,28500,275,255,0,0
12900,29400,268,255,0,0
13000,15400,2,255,0,0
13000,24000,90,255,0,0
13000,27300,278,255,0,0
13000,28700,272,255,0,0
13100,23300,76,255,0,0
13100,23700,94,255,0,0
13200,17800,31,255,0,0
13200,17900,31,255,0,0
13300,17400,30,255,0,0
13300,28800,274,255,0,0
13400,15600,24,255,0,0
13400,16300,28,255,0,0
13400,16800,30,255,0,0
13400,18400,38,255,0,0
13400,19600,46,255,0,0
13400,24600,120,255,0,0
13500,15800,25,255,0,0
13500,21600,135,255,0,0
13600,16100,31,255,0,0
13600,17800,31,255,0,0
13700,13700,7,255,0,0
13700,18100,35,255,0,0
13800,19500,17,255,0,0
13900,13100,0,255,0,0
13900,14600,9,255,0,0
13900,22300,290,255,0,0
13900,22700,275,255,0,0
13900,27400,284,255,0,0
13900,29200,276,255,0,0
14000,16200,32,255,0,0
14000,18200,48,255,0,0
14100,12500,0,255,0,0
14100,14200,7,255,0,0
14100,15000,13,255,0,0
14100,23800,296,255,0,0
14100,25500,134,255,0,0
14100,25800,132,255,0,0
14100,26700,135,255,0,0
14300,23400,287,255,0,0
14400,18500,70,255,0,0
14400,18800,70,255,0,0
14400,22000,279,255,0,0
14400,26200,133,255,0,0
14400,26600,129,255,0,0
14400,29900,280,255,0,0
14500,15900,32,255,0,0
14500,19900,62,255,0,0
14500,20300,106,255,0,0
14600,13800,19,255,0,0
14700,8100,0,255,0,0
14700,22400,286,255,0,0
14800,8500,16,255,0,0
14800,8900,6,255,0,0
14800,11200,0,255,0,0
14800,16400,32,255,0,0
14800,18000,52,255,0,0
14800,18200,67,255,0,0
14800,20200,110,255,0,0
14800,29300,294,255,0,0
14900,13400,25,255,0,0
14900,16000,32,255,0,0
14900,17000,32,255,0,0
14900,24000,290,255,0,0
15000,19800,141,255,0,0
15000,22100,293,255,0,0
15000,29000,295,255,0,0
15100,10300,1,255,0,0
15100,15800,29,255,0,0
15100,16500,29,255,0,0
15100,22500,288,255,0,0
15100,24200,291,255,0,0
15200,9900,0,255,0,0
15200,15900,29,255,0,0
15200,16200,30,255,0,0
15200,16800,34,255,0,0
15200,17100,35,255,0,0
15200,24300,290,255,0,0
15200,27400,5,255,0,0
15300,9000,10,255,0,0
15300,13200,28,255,0,0
15300,17600,31,255,0,0
15300,22300,294,255,0,0
15400,10700,0,255,0,0
15400,16100,29,255,0,0
15400,26800,10,255,0,0
15500,9000,10,255,0,0
15500,13900,41,255,0,0
15500,15400,32,255,0,0
15500,18100,37,255,0,0
15500,18400,60,255,0,0
15500,24300,291,255,0,0
15500,24700,258,255,0,0
15600,8500,26,255,0,0
15600,9100,7,255,0,0
15700,14100,57,255,0,0
15700,17800,50,255,0,0
15700,26500,13,255,0,0
15700,27600,8,255,0,0
15800,15000,42,255,0,0
15900,13800,37,255,0,0
15900,24400,280,255,0,0
16000,8000,20,255,0,0
16000,8300,39,255,0,0
16000,9400,14,255,0,0
16100,13700,32,255,0,0
16200,6700,101,255,0,0
16200,20700,344,255,0,0
16200,24200,280,255,0,0
16200,26200,15,255,0,0
16300,13800,49,255,0,0
16500,7300,81,255,0,0
16500,13600,26,255,0,0
16500,19600,364,255,0,0
16500,20000,353,255,0,0
16500,21400,340,255,0,0
16500,24600,266,255,0,0
16600,9500,10,255,0,0
16600,17200,119,255,0,0
16600,20900,368,255,0,0
16800,5800,92,255,0,0
16800,6200,90,255,0,0
16800,13300,14,255,0,0
16800,23000,287,255,0,0
16800,23500,283,255,0,0
16800,24600,271,255,0,0
16800,24800,266,255,0,0
17000,6800,84,255,0,0
17000,7500,70,255,0,0
17100,5600,92,255,0,0
17100,8500,62,255,0,0
17100,10800,0,255,0,0
17100,17800,229,255,0,0
17200,7900,67,255,0,0
17200,22500,330,255,0,0
17300,5200,14,255,0,0
17300,6200,88,255,0,0
17300,16900,155,255,0,0
17400,10300,0,255,0,0
17400,17100,177,255,0,0
17400,19700,363,255,0,0
17400,20400,365,255,0,0
17400,23300,287,255,0,0
17500,5700,91,255,0,0
17500,9900,2,255,0,0
17500,12100,24,255,0,0
17500,16400,151,255,0,0
17500,17800,226,255,0,0
17500,22600,331,255,0,0
17600,5300,30,255,0,0
17600,10100,1,255,0,0
17600,15800,120,255,0,0
17600,26200,9,255,0,0
17700,19900,412,255,0,0
17700,20700,380,255,0,0
17700,22800,332,255,0,0
17800,21100,384,255,0,0
17800,21400,383,255,0,0
17800,22900,334,255,0,0
17900,15300,105,255,0,0
17900,16300,148,255,0,0
17900,17200,175,255,0,0
17900,21800,384,255,0,0
18000,6200,94,255,0,0
18000,15000,94,255,0,0
18000,17300,176,255,0,0
18000,18600,230,255,0,0
18000,26500,6,255,0,0
18100,7000,29,255,0,0
18100,27800,2,255,0,0
18200,5300,36,255,0,0
18200,9400,111,255,0,0
18200,16100,129,255,0,0
18200,22200,383,255,0,0
18200,23000,347,255,0,0
18300,4500,47,255,0,0
18300,4800,41,255,0,0
18300,7300,26,255,0,0
18300,11900,21,255,0,0
18300,22800,374,255,0,0
18300,23300,344,255,0,0
18400,8400,121,255,0,0
18400,9000,117,255,0,0
18400,11900,22,255,0,0
18400,14100,33,255,0,0
18400,15200,95,255,0,0
18400,15300,105,255,0,0
18400,16400,137,255,0,0
18500,5500,31,255,0,0
18500,6100,85,255,0,0
18500,16600,140,255,0,0
18500,27600,0,255,0,0
18600,4600,51,255,0,0
18600,15700,122,255,0,0
18600,17100,179,255,0,0
18600,17200,183,255,0,0
18600,23800,341,255,0,0
18700,5100,31,255,0,0
18700,13300,27,255,0,0
18700,14900,58,255,0,0
18700,21400,441,255,0,0
18700,27200,0,255,0,0
18800,7300,0,255,0,0
18800,10600,12,255,0,0
18800,11800,18,255,0,0
18900,5100,36,255,0,0
18900,13600,29,255,0,0
18900,14600,24,255,0,0
18900,24100,338,255,0,0
18900,25300,278,255,0,0
19000,14200,2,255,0,0
19000,15000,67,255,0,0
19000,15300,92,255,0,0
19000,17500,183,255,0,0
19000,18400,225,255,0,0
19100,4800,56,255,0,0
19100,5200,32,255,0,0
19100,11900,54,255,0,0
19100,15300,87,255,0,0
19200,11400,23,255,0,0
19200,14600,15,255,0,0
19300,1900,42,255,0,0
19300,2300,41,255,0,0
19300,7300,0,255,0,0
19300,8800,135,255,0,0
19300,21600,546,255,0,0
19300,25400,279,255,0,0
19400,10200,105,255,0,0
19400,13800,23,255,0,0
19400,15000,60,255,0,0
19400,15400,86,255,0,0
19400,15800,118,255,0,0
19400,18900,219,255,0,0
19500,1500,36,255,0,0
19500,11700,20,255,0,0
19500,12400,56,255,0,0
19500,14200,7,255,0,0
19600,4900,25,255,0,0
19600,7100,0,255,0,0
19600,13100,63,255,0,0
19700,2800,45,255,0,0
19700,16400,137,255,0,0
19700,21200,577,255,0,0
19800,1100,37,255,0,0
19800,3900,44,255,0,0
19800,11700,21,255,0,0
19800,12000,54,255,0,0
19800,24000,548,255,0,0
19900,3300,43,255,0,0
19900,4100,55,255,0,0
19900,4900,27,255,0,0
19900,5600,0,255,0,0
19900,11700,18,255,0,0
19900,13600,61,255,0,0
19900,15100,74,255,0,0
20000,500,32,255,0,0
20000,4500,57,255,0,0
20000,4600,56,255,0,0
20000,11300,18,255,0,0
20000,14000,21,255,0,0
20000,14100,12,255,0,0
20100,1700,41,255,0,0
20100,23600,559,255,0,0
20200,4800,57,255,0,0
20200,11800,12,255,0,0
20200,15100,82,255,0,0
20200,16600,134,255,0,0
20300,0,26,255,0,0
20300,1400,38,255,0,0
20300,5000,51,255,0,0
20300,12100,11,255,0,0
20300,15100,86,255,0,0
20400,1800,41,255,0,0
20400,2800,53,255,0,0
20400,23600,561,255,0,0
20400,29200,0,255,0,0
20500,4800,70,255,0,0
20500,4900,70,255,0,0
20500,5100,61,255,0,0
20500,16800,137,255,0,0
20600,200,27,255,0,0
20600,500,26,255,0,0
20600,11700,1,255,0,0
20600,12200,9,255,0,0
20600,18600,182,255,0,0
20700,1300,30,255,0,0
20700,5500,57,255,0,0
20700,10600,198,255,0,0
20700,17000,144,255,0,0
20800,5700,55,255,0,0
20800,28500,3,255,0,0
20800,29000,4,255,0,0
20900,17600,176,255,0,0
21000,10400,217,255,0,0
21100,5500,85,255,0,0
21100,5900,85,255,0,0
21100,17300,150,255,0,0
21100,27800,5,255,0,0
21200,5100,83,255,0,0
21200,6600,91,255,0,0
21200,9000,211,255,0,0
21200,10800,236,255,0,0
21200,14500,121,255,0,0
21200,17300,146,255,0,0
21200,17700,175,255,0,0
21200,22100,550,255,0,0
21300,200,27,255,0,0
21300,2700,53,255,0,0
21400,700,20,255,0,0
21400,2900,56,255,0,0
21400,10500,237,255,0,0
21400,23500,545,255,0,0
21400,27300,0,255,0,0
21400,29400,2,255,0,0
21500,1300,18,255,0,0
21500,2600,53,255,0,0
21500,7000,112,255,0,0
21500,9100,213,255,0,0
21500,9900,213,255,0,0
21500,14700,120,255,0,0
21500,15500,120,255,0,0
21500,25500,515,255,0,0
21600,2100,51,255,0,0
21600,10100,229,255,0,0
21600,19800,407,255,0,0
21600,22400,557,255,0,0
21600,23000,559,255,0,0
21700,3000,58,255,0,0
21700,7800,1,255,0,0
21700,10700,254,255,0,0
21700,17400,142,255,0,0
21700,18800,372,255,0,0
21800,2800,54,255,0,0
21800,5300,85,255,0,0
21800,18500,357,255,0,0
21800,20200,423,255,0,0
21800,24900,520,255,0,0
21900,11400,295,255,0,0
21900,22100,559,255,0,0
22000,2500,52,255,0,0
22000,3200,68,255,0,0
22000,7900,5,255,0,0
22000,11000,295,255,0,0
22000,14500,124,255,0,0
22000,20700,417,255,0,0
22000,22400,573,255,0,0
22000,23000,563,255,0,0
22000,27500,0,255,0,0
22100,1100,22,255,0,0
22100,3900,66,255,0,0
22100,4500,65,255,0,0
22100,5500,87,255,0,0
22100,7600,2,255,0,0
22100,17100,138,255,0,0
22100,18300,353,255,0,0
22100,25100,522,255,0,0
22200,8800,231,255,0,0
22200,16800,139,255,0,0
22200,19600,384,255,0,0
22200,23800,542,255,0,0
22300,2700,56,255,0,0
22300,7000,41,255,0,0
22300,9100,229,255,0,0
22300,10900,295,255,0,0
22300,21200,338,255,0,0
22400,4100,73,255,0,0
22400,4500,74,255,0,0
22400,16400,156,255,0,0
22500,5100,83,255,0,0
22500,29600,0,255,0,0
22600,1000,13,255,0,0
22600,1900,42,255,0,0
22600,6400,46,255,0,0
22600,18100,352,255,0,0
22600,28100,0,255,0,0
22700,10900,296,255,0,0
22700,17200,210,255,0,0
22700,24500,528,255,0,0
22800,2600,57,255,0,0
22800,3400,74,255,0,0
22800,21900,344,255,0,0
22900,300,45,255,0,0
22900,1900,42,255,0,0
22900,6800,10,255,0,0
22900,28900,0,255,0,0
23000,3000,60,255,0,0
23000,6500,38,255,0,0
23000,13500,358,255,0,0
23000,13700,359,255,0,0
23000,24300,538,255,0,0
23100,800,20,255,0,0
23100,8500,253,255,0,0
23100,17200,209,255,0,0
23100,20400,343,255,0,0
23100,24900,527,255,0,0
23200,0,45,255,0,0
23200,6800,36,255,0,0
23200,11100,347,255,0,0
23200,11700,366,255,0,0
23200,11900,377,255,0,0
23300,2000,36,255,0,0
23300,3700,72,255,0,0
23300,8900,256,255,0,0
23300,12300,364,255,0,0
23300,13300,362,255,0,0
23400,12900,362,255,0,0
23400,17100,212,255,0,0
23400,18100,352,255,0,0
23400,25100,535,255,0,0
23500,700,42,255,0,0
23500,27300,451,255,0,0
23600,900,26,255,0,0
23600,3400,60,255,0,0
23600,7400,133,255,0,0
23600,7800,138,255,0,0
23600,10600,260,255,0,0
23600,10700,262,255,0,0
23600,11100,305,255,0,0
23600,12100,388,255,0,0
23600,14000,361,255,0,0
23600,18400,349,255,0,0
23600,19000,345,255,0,0
23700,2200,52,255,0,0
23700,6900,116,255,0,0
23700,7100,120,255,0,0
23700,8700,255,255,0,0
23700,9300,258,255,0,0
23700,11500,365,255,0,0
23700,12700,394,255,0,0
23700,15300,174,255,0,0
23700,19300,345,255,0,0
23700,22300,358,255,0,0
23700,26400,509,255,0,0
23800,600,46,255,0,0
23800,3900,76,255,0,0
23800,6700,124,255,0,0
23800,9900,258,255,0,0
23800,11600,383,255,0,0
23800,13100,391,255,0,0
23800,17100,209,255,0,0
23800,19100,331,255,0,0
23800,22800,360,255,0,0
23800,25900,518,255,0,0
23800,27900,435,255,0,0
23900,800,28,255,0,0
23900,19400,334,255,0,0
23900,19800,347,255,0,0
23900,21300,296,255,0,0
23900,21400,296,255,0,0
23900,21900,304,255,0,0
24000,8200,170,255,0,0
24100,500,48,255,0,0
24100,5600,93,255,0,0
24200,2400,35,255,0,0
24200,3800,66,255,0,0
24200,4100,80,255,0,0
24200,5700,89,255,0,0
24200,19200,314,255,0,0
24200,21100,286,255,0,0
24200,22300,332,255,0,0
24200,24000,364,255,0,0
24300,17300,207,255,0,0
24300,22600,359,255,0,0
24400,6600,96,255,0,0
24400,8800,255,255,0,0
24400,17800,213,255,0,0
24400,19500,311,255,0,0
24400,22100,307,255,0,0
24400,26200,527,255,0,0
24500,4400,78,255,0,0
24500,4600,84,255,0,0
24500,15700,203,255,0,0
24500,20700,297,255,0,0
24500,22000,299,255,0,0
24500,22300,328,255,0,0
24500,26800,530,255,0,0
24500,28300,419,255,0,0
24600,16200,206,255,0,0
24600,24000,329,255,0,0
24700,2100,0,255,0,0
24700,13100,459,255,0,0
24700,15400,199,255,0,0
24700,15500,201,255,0,0
24700,17900,213,255,0,0
24700,27100,496,255,0,0
24800,0,42,255,0,0
24800,1200,1,255,0,0
24800,4600,71,255,0,0
24800,13000,459,255,0,0
24800,19500,308,255,0,0
24800,27100,491,255,0,0
24900,19100,308,255,0,0
24900,23700,369,255,0,0
25000,800,3,255,0,0
25000,8400,165,255,0,0
25000,20400,310,255,0,0
25000,22200,313,255,0,0
25100,200,6,255,0,0
25100,3000,14,255,0,0
25100,5100,90,255,0,0
25100,12500,455,255,0,0
25100,13600,462,255,0,0
25100,28500,421,255,0,0
25200,100,5,255,0,0
25200,2400,0,255,0,0
25200,9300,265,255,0,0
25200,17700,215,255,0,0
25200,20500,301,255,0,0
25300,1700,0,255,0,0
25300,7700,132,255,0,0
25300,13800,451,255,0,0
25300,20200,308,255,0,0
25300,23700,431,255,0,0
25400,3200,19,255,0,0
25400,3400,24,255,0,0
25400,11500,463,255,0,0
25400,13700,458,255,0,0
25400,14100,423,255,0,0
25400,15700,228,255,0,0
25400,18400,303,255,0,0
25400,22000,306,255,0,0
25400,24100,452,255,0,0
25500,1700,0,255,0,0
25500,2100,0,255,0,0
25500,2300,0,255,0,0
25500,3800,20,255,0,0
25500,3900,21,255,0,0
25500,19600,293,255,0,0
25500,27100,491,255,0,0
25500,27200,487,255,0,0
25500,28700,412,255,0,0
25600,4400,15,255,0,0
25600,5100,78,255,0,0
25600,6100,20,255,0,0
25600,7800,133,255,0,0
25600,24600,466,255,0,0
25700,7800,134,255,0,0
25700,8800,156,255,0,0
25700,17300,217,255,0,0
25700,17400,219,255,0,0
25800,9700,275,255,0,0
25800,11200,461,255,0,0
25800,11300,467,255,0,0
25800,14900,424,255,0,0
25900,24800,467,255,0,0
26000,0,4,255,0,0
26000,6100,21,255,0,0
26000,13700,456,255,0,0
26000,13800,446,255,0,0
26000,16000,219,255,0,0
26000,18100,281,255,0,0
26000,29200,415,255,0,0
26100,7300,118,255,0,0
26100,17000,213,255,0,0
26100,17500,225,255,0,0
26100,21600,305,255,0,0
26100,21800,324,255,0,0
26200,5000,13,255,0,0
26200,14200,430,255,0,0
26200,21800,325,255,0,0
26200,25700,489,255,0,0
26200,26600,512,255,0,0
26300,0,3,255,0,0
26300,5300,16,255,0,0
26300,8800,154,255,0,0
26300,10100,276,255,0,0
26300,10400,275,255,0,0
26300,11100,501,255,0,0
26300,13300,513,255,0,0
26300,14200,429,255,0,0
26300,16000,220,255,0,0
26300,20500,277,255,0,0
26300,22500,324,255,0,0
26300,27500,494,255,0,0
26400,5700,22,255,0,0
26400,9800,276,255,0,0
26400,16000,217,255,0,0
26400,27000,510,255,0,0
26500,4900,1,255,0,0
26500,5200,4,255,0,0
26500,21500,301,255,0,0
26500,21900,330,255,0,0
26500,26300,500,255,0,0
26600,10200,276,255,0,0
26600,12400,521,255,0,0
26600,14600,424,255,0,0
26600,16500,212,255,0,0
26600,16600,212,255,0,0
26700,4300,0,255,0,0
26700,12000,527,255,0,0
26700,14900,424,255,0,0
26700,24000,436,255,0,0
26700,26700,511,255,0,0
26700,27200,507,255,0,0
26800,0,2,255,0,0
26800,1400,0,255,0,0
26800,6300,119,255,0,0
26800,11500,521,255,0,0
26800,16000,216,255,0,0
26800,18800,280,255,0,0
26800,19500,282,255,0,0
26800,20300,280,255,0,0
26900,4200,0,255,0,0
26900,12300,525,255,0,0
26900,27400,498,255,0,0
26900,27500,495,255,0,0
26900,29900,528,255,0,0
27000,3100,7,255,0,0
27000,11500,532,255,0,0
27000,14000,574,255,0,0
27000,18900,263,255,0,0
27100,3300,5,255,0,0
27100,3900,0,255,0,0
27100,4600,6,255,0,0
27100,11200,520,255,0,0
27100,19800,264,255,0,0
27100,23300,319,255,0,0
27100,26300,447,255,0,0
27200,100,0,255,0,0
27200,900,0,255,0,0
27200,8600,144,255,0,0
27200,15700,222,255,0,0
27200,20800,291,255,0,0
27200,24100,436,255,0,0
27200,28100,565,255,0,0
27200,29200,564,255,0,0
27200,29900,541,255,0,0
27300,700,0,255,0,0
27300,2600,10,255,0,0
27300,3500,0,255,0,0
27300,11200,532,255,0,0
27300,18300,213,255,0,0
27300,27600,495,255,0,0
27400,15600,242,255,0,0
27400,15900,240,255,0,0
27400,23100,299,255,0,0
27400,26400,442,255,0,0
27400,26700,449,255,0,0
27500,700,0,255,0,0
27500,16200,232,255,0,0
27500,16300,230,255,0,0
27500,20800,290,255,0,0
27500,28000,561,255,0,0
27600,3400,1,255,0,0
27600,11100,532,255,0,0
27600,15000,256,255,0,0
27600,16600,231,255,0,0
27600,16700,229,255,0,0
27700,2400,6,255,0,0
27700,3700,0,255,0,0
27700,6800,153,255,0,0
27700,16500,238,255,0,0
27700,24100,440,255,0,0
27700,24200,441,255,0,0
27700,24500,440,255,0,0
27700,27100,425,255,0,0
27700,29200,558,255,0,0
27800,400,0,255,0,0
27800,19800,212,255,0,0
27900,1000,0,255,0,0
27900,8600,145,255,0,0
27900,12200,594,255,0,0
27900,15800,258,255,0,0
27900,18400,210,255,0,0
27900,20800,290,255,0,0
27900,21200,290,255,0,0
27900,26800,422,255,0,0
28000,2400,3,255,0,0
28000,7000,152,255,0,0
28000,7800,150,255,0,0
28000,17000,233,255,0,0
28000,21900,248,255,0,0
28000,22600,287,255,0,0
28100,4100,0,255,0,0
28100,11600,622,255,0,0
28100,12000,619,255,0,0
28100,12500,592,255,0,0
28100,12800,594,255,0,0
28100,23700,420,255,0,0
28200,200,0,255,0,0
28200,8100,146,255,0,0
28200,8800,143,255,0,0
28200,15200,258,255,0,0
28200,17900,220,255,0,0
28200,23500,411,255,0,0
28300,1500,0,255,0,0
28300,7600,170,255,0,0
28300,12300,619,255,0,0
28300,20000,212,255,0,0
28300,20500,237,255,0,0
28300,21000,232,255,0,0
28300,22300,231,255,0,0
28400,4200,0,255,0,0
28400,19600,217,255,0,0
28500,2000,0,255,0,0
28500,2100,0,255,0,0
28500,12600,620,255,0,0
28500,17500,245,255,0,0
28500,19500,220,255,0,0
28600,6300,7,255,0,0
28600,9500,149,255,0,0
28600,23800,424,255,0,0
28600,24900,427,255,0,0
28600,26400,418,255,0,0
28600,29000,553,255,0,0
28700,4300,0,255,0,0
28700,5900,11,255,0,0
28700,8100,163,255,0,0
28700,8900,155,255,0,0
28700,11000,655,255,0,0
28700,13000,619,255,0,0
28700,23100,410,255,0,0
28700,24700,426,255,0,0
28800,2000,0,255,0,0
28800,8400,161,255,0,0
28800,15200,259,255,0,0
28800,20100,212,255,0,0
28800,23900,428,255,0,0
28800,24400,429,255,0,0
28800,27900,586,255,0,0
28900,6500,6,255,0,0
28900,19600,225,255,0,0
28900,23900,426,255,0,0
29000,23000,409,255,0,0
29000,24200,427,255,0,0
29000,25600,427,255,0,0
29000,29000,553,255,0,0
29100,200,0,255,0,0
29100,17300,240,255,0,0
29200,2200,0,255,0,0
29200,4200,0,255,0,0
29200,5800,10,255,0,0
29200,13100,622,255,0,0
29300,20800,208,255,0,0
29300,23100,408,255,0,0
29400,27900,587,255,0,0
29400,29000,554,255,0,0
29500,9800,205,255,0,0
29500,13000,615,255,0,0
29500,29800,524,255,0,0
29600,500,0,255,0,0
29600,3800,0,255,0,0
29600,20900,210,255,0,0
29700,2700,0,255,0,0
29800,2400,0,255,0,0
29800,3000,0,255,0,0
29800,5500,7,255,0,0
29800,10900,655,255,0,0
29800,17400,241,255,0,0
29800,29400,540,255,0,0
29900,900,0,255,0,0
29900,2500,0,255,0,0
29900,6800,176,255,0,0
29900,13000,621,255,0,0
29900,17000,242,255,0,0
29900,20900,213,255,0,0
29900,23100,408,255,0,0
29900,28400,586,255,0,0
29900,29800,529,255,0,0
